ply
format ascii 1.0
comment PCL generated
element vertex 2129
property float x
property float y
property float z
element camera 0
property float view_px
property float view_py
property float view_pz
property float x_axisx
property float x_axisy
property float x_axisz
property float y_axisx
property float y_axisy
property float y_axisz
property float z_axisx
property float z_axisy
property float z_axisz
property float focal
property float scalex
property float scaley
property float centerx
property float centery
property int viewportx
property int viewporty
property float k1
property float k2
end_header
667.14288 -1473.4286 2732
751.88892 -1476.7778 2732
831.20001 -1490.2 2732
946 -1495 2732
874.59998 -1503.8 2743
959.40002 -1502.4 2743
1045.1177 -1526.5294 2743
1147.6154 -1523.2307 2743
1248.75 -1511.75 2743
1354.1578 -1539.3684 2743
1443.6923 -1538 2743
1554.8334 -1516.5 2743
1650.3334 -1533.6666 2743
1720.5385 -1548.4615 2743
1828.4 -1566 2743
2237.7144 -1562 2743
-830.88892 -1424.2222 2743
-747.69232 -1429.2307 2743
-650.92859 -1421.4286 2743
-559.61108 -1415.9445 2743
-445.54544 -1439.3636 2743
-350.07693 -1447.3077 2743
-255.07692 -1442.5385 2743
-153.66667 -1424.2222 2743
385 -1444.2858 2743
445.70587 -1477.9412 2743
576.5 -1470.1666 2743
646.61536 -1471.6154 2743
740.75 -1482 2743
822.75 -1488.25 2743
949.75 -1495 2743
-811.88892 -1356.5 2743
878.16669 -1505 2754
946.16669 -1502.5 2754
1052.3529 -1525.5883 2754
1152.1 -1524.8 2754
1248.5 -1510.5 2754
1360.7142 -1538.7858 2754
1449.4615 -1538.7693 2754
1552.6364 -1518 2754
1642 -1534.9166 2754
1744.6111 -1556.2778 2754
1835.7059 -1565.7059 2754
2253.3 -1563.4 2754
-820.875 -1426.125 2754
-756.59998 -1429.1 2754
-649.78571 -1421.2858 2754
-545 -1415 2754
-446.81818 -1440.3636 2754
-349.9375 -1447.1875 2754
-236.85715 -1443 2754
-160.125 -1427.25 2754
387.16666 -1439.5 2754
445.6842 -1476.6316 2754
536.81818 -1475 2754
651.36365 -1472.4546 2754
750.06665 -1482 2754
822.59998 -1489.2 2754
943.66669 -1494 2754
-806.875 -1358.0625 2754
-798.59998 -1390 2754
882.79999 -1507 2765
905.5 -1507 2765
1047.7333 -1522.8 2765
1141.6364 -1529.3636 2765
1246.2858 -1510 2765
1343.5454 -1531.6364 2765
1453.1 -1540.5 2765
1547.1818 -1515.4546 2765
1648.3334 -1534.9166 2765
1759.7894 -1558.1052 2765
1844.2632 -1565 2765
2260.125 -1559.25 2765
-811.64703 -1423.5294 2765
-768.63263 -1418.4897 2765
-639.85712 -1423 2765
-544.90002 -1417.4 2765
-465 -1437.2222 2765
-348.38889 -1446.1666 2765
-258.22223 -1447.4445 2765
-159 -1427.4546 2765
391 -1440.8 2765
440.5 -1474.2 2765
549.57141 -1474 2765
653.76923 -1473.3077 2765
707.66669 -1481 2765
834 -1493.6666 2765
956.75 -1500 2765
-786.57141 -1389.8572 2765
880.20001 -1507 2777
927 -1507 2777
1051.9166 -1523.5834 2777
1168.375 -1528 2777
1242 -1509.5714 2777
1348.0909 -1533.5454 2777
1446.5834 -1545.75 2777
1549.1666 -1522 2777
1649.8182 -1536.8182 2777
1762.1364 -1554.7727 2777
1852.7916 -1565.1666 2777
2253.1111 -1563.5555 2777
-736 -1412.9375 2777
-649.63635 -1425.1818 2777
-547.84613 -1417.3846 2777
-451.69232 -1442.7693 2777
-353.68967 -1441.3103 2777
-251.86667 -1447.2 2777
-153.44444 -1428.1111 2777
389.75 -1433.5 2777
447.70834 -1469.9166 2777
520.875 -1475 2777
655.40002 -1476.1 2777
759.5 -1487 2777
838 -1495.8334 2777
951.72729 -1500 2777
-786.17389 -1370.7391 2777
883.79999 -1506 2788
931 -1506 2788
1049.5454 -1523.0909 2788
1150.4615 -1533.6154 2788
1243 -1510.3572 2788
1350.3334 -1533.6666 2788
1460.2858 -1545.7142 2788
1554.3334 -1520.1666 2788
1652.3334 -1538 2788
1741.25 -1542.0834 2788
1850.2 -1562.2 2788
1907.5 -1581.5 2788
2246.4375 -1569.375 2788
-731.25 -1411.5 2788
-650.92859 -1425.5 2788
-560.15387 -1417.3077 2788
-450.5 -1444.0834 2788
-354.29166 -1435.3334 2788
-250.25 -1445.5 2788
-156.72728 -1429 2788
393 -1434 2788
439.93332 -1463.2333 2788
551.42859 -1477.7858 2788
649.36365 -1475.6364 2788
723.5 -1487 2788
830 -1495.8 2788
955.79999 -1500 2788
-778 -1383.875 2788
877.33331 -1506 2799
939.70001 -1506 2799
1055.2667 -1524 2799
1142.7273 -1536.4546 2799
1252.3334 -1509.7333 2799
1348.1 -1532.7 2799
1450.4615 -1551.6923 2799
1540.7 -1523.4 2799
1641.4286 -1535 2799
1755.875 -1546.875 2799
1849.3572 -1561.5 2799
1919.2858 -1579.8572 2799
2247.1177 -1573.2941 2799
-728.66669 -1411.5834 2799
-651.5 -1425.8334 2799
-552.33331 -1421.1666 2799
-443.15384 -1447.0769 2799
-351.12 -1431.6 2799
-245.78572 -1449.4286 2799
-149.5 -1427.4 2799
448.55554 -1460.7778 2799
544.68182 -1474.7273 2799
652.76923 -1475.7693 2799
747.20001 -1490.2 2799
831.5 -1497.5 2799
-784.55554 -1364.6111 2799
1940 -1605 2811
2207 -1605 2811
877.85712 -1506 2811
937.18182 -1506 2811
1054.8462 -1523.2307 2811
1145.8572 -1537.5 2811
1234.7 -1512.9 2811
1348.1 -1533.3 2811
1446.7273 -1555.1818 2811
1544 -1528.5 2811
1654.1 -1541.2 2811
1749 -1544.25 2811
1846 -1563 2811
1927.6666 -1577.0834 2811
2137.6667 -1598 2811
2245.8667 -1576.7333 2811
-721.75 -1414.125 2811
-655.75 -1426 2811
-548.16669 -1421 2811
-444.125 -1446.3125 2811
-342.18182 -1433.5454 2811
-250.46666 -1449.8 2811
-157.55556 -1430.2222 2811
451.88889 -1457.8334 2811
547.5 -1473.5714 2811
640.27271 -1477.3636 2811
737.625 -1491.5 2811
821.75 -1499 2811
-779.5 -1381.5 2811
1961.25 -1609.5 2823
2144.6001 -1608.2 2823
2203 -1608 2823
848.33331 -1505 2823
987.33331 -1512 2823
1053.7 -1523.3 2823
1150.5385 -1536.8462 2823
1248.9091 -1513.1818 2823
1357.3334 -1537.5 2823
1451.6428 -1554.9286 2823
1543.3636 -1530.6364 2823
1641.75 -1539.375 2823
1756.875 -1548.375 2823
1842.25 -1565 2823
1943.6666 -1580.5555 2823
2139.2856 -1591.6428 2823
2249.1765 -1578.2354 2823
-722.83331 -1413.8334 2823
-647.63635 -1429.1818 2823
-551.36365 -1422.1818 2823
-448.33334 -1445.6666 2823
-346.1875 -1431.875 2823
-258.42856 -1448.9286 2823
-158.2 -1434.8 2823
391 -1433 2823
451.54544 -1457.1818 2823
552.55554 -1473.3889 2823
643.63635 -1479 2823
753.90912 -1495.3636 2823
805.5 -1499 2823
-779.6875 -1372.125 2823
1979 -1611 2834
2093 -1615.6666 2834
2151 -1611 2834
2204 -1606.3334 2834
858.33331 -1508 2834
948.07141 -1511 2834
1057.1 -1524.7 2834
1151 -1538 2834
1245 -1516.8462 2834
1346.0834 -1534.1666 2834
1454.4546 -1555.3636 2834
1542.1666 -1534.5 2834
1650.75 -1542.3334 2834
1754.9091 -1547.2727 2834
1852 -1567.5834 2834
1945.1428 -1577.5714 2834
2154 -1589.375 2834
2240.8235 -1582.7646 2834
-721.42859 -1414.5714 2834
-647.92859 -1428.8572 2834
-538.875 -1426.5 2834
-440.11765 -1447.3529 2834
-347.22223 -1429.7778 2834
-253.44444 -1447.6111 2834
-153.125 -1431.375 2834
392.66666 -1429 2834
460 -1459.2727 2834
558.70001 -1470.9 2834
652.20001 -1478.4667 2834
734.85712 -1494.1428 2834
-776.79999 -1377 2834
1995 -1612.1666 2846
2069.8 -1618.9333 2846
2123.4285 -1607 2846
2207.5 -1604 2846
781.79999 -1504 2846
878.66669 -1511 2846
938.75 -1511 2846
1045.3636 -1523.7273 2846
1151.4706 -1538.1177 2846
1248.7273 -1516.5454 2846
1357.3636 -1537 2846
1453.9091 -1558.9091 2846
1553.4615 -1535.6154 2846
1668.375 -1546.75 2846
1751.4546 -1547.1818 2846
1842.875 -1568.5 2846
1964.875 -1580.5625 2846
2097 -1598 2846
2149.4119 -1589.7646 2846
2248.6428 -1582.7858 2846
-718.71429 -1415.7142 2846
-660.27271 -1430.3636 2846
-561.36365 -1425.2727 2846
-450 -1445.6 2846
-353.72726 -1432.9091 2846
-255.92308 -1446.7693 2846
-155.69231 -1434.2307 2846
449.44446 -1459.2222 2846
561.29999 -1470.3 2846
641.16669 -1477.4166 2846
726.11108 -1491.7778 2846
-779.20001 -1376.7 2846
2051.8572 -1617.3143 2858
2100 -1608 2858
765 -1504 2858
838.72729 -1511 2858
959.5 -1514 2858
1047.2307 -1524.5385 2858
1149.2354 -1537.2354 2858
1246.6666 -1519 2858
1351.4445 -1535.1111 2858
1448 -1559.2307 2858
1528.5 -1544 2858
1652.3 -1544 2858
1754.1666 -1551 2858
1847 -1571.1111 2858
1956.3636 -1576.4546 2858
2027.2 -1596.6 2858
2143 -1588.9412 2858
2235.8462 -1586.3077 2858
-723.75 -1411.5 2858
-647.90912 -1430 2858
-524 -1431.1666 2858
-449 -1444.25 2858
-313.66666 -1437 2858
-247.69231 -1447.6923 2858
-153.55556 -1435.5555 2858
455.90909 -1460.2727 2858
561.84998 -1468.2 2858
637.52942 -1475.8235 2858
729.33331 -1491.8334 2858
-777.18182 -1380.9091 2858
2060.4194 -1616.1936 2870
779 -1507.6 2870
854.5 -1512.1 2870
948.91669 -1517 2870
1065.2 -1527.6 2870
1145.3846 -1535.3846 2870
1242.7693 -1522.1538 2870
1348.8889 -1534.8889 2870
1446.3 -1560.7 2870
1554 -1542.6666 2870
1647 -1544.875 2870
1758.25 -1552.5 2870
1854.25 -1573.3334 2870
1949.6666 -1573.8334 2870
2034.9091 -1594.1818 2870
2144.4707 -1588.9412 2870
2251.5833 -1588.1666 2870
2802 -1581 2870
-720.75 -1412.75 2870
-652.30768 -1430.6154 2870
-557.41669 -1430.1666 2870
-453.5625 -1444.75 2870
-354.46155 -1436.5385 2870
-248.41176 -1446.7059 2870
-149.63637 -1434.8182 2870
398 -1436 2870
451.70001 -1461.6 2870
551.28571 -1467 2870
640.30768 -1473.4615 2870
730.40002 -1492.8 2870
-780.44446 -1380.2222 2870
2076.6001 -1605 2882
775.59998 -1507.2 2882
855.57141 -1517 2882
930.40002 -1517 2882
1049.5 -1525.625 2882
1156.2858 -1536.3334 2882
1241.8182 -1522.2727 2882
1347.6 -1534.9 2882
1446.2142 -1560 2882
1529.8572 -1552.2858 2882
1658.2222 -1548.2222 2882
1747.5834 -1554.0834 2882
1837 -1567.7142 2882
1951.6666 -1578.1666 2882
2042.1818 -1594.1818 2882
2148.3889 -1588.2778 2882
2244.5833 -1589.25 2882
2811.6667 -1577.3334 2882
-721.5 -1412.5 2882
-676.33331 -1431.5555 2882
-519.20001 -1435 2882
-450.5 -1444.3334 2882
-309.66666 -1442 2882
-252.90909 -1446.4546 2882
-154.7 -1436.6 2882
-100 -1402 2882
441.55554 -1460.6666 2882
555.09998 -1464.65 2882
633.625 -1470.0625 2882
722.79999 -1492.4 2882
-786.14288 -1382.4286 2882
2082 -1604 2894
767.75 -1506 2894
849.40002 -1516 2894
949.61536 -1518.6923 2894
1047.7778 -1526.1111 2894
1141.1 -1530.35 2894
1234.5454 -1527.2727 2894
1351 -1536.375 2894
1436.75 -1559.5 2894
1549.9166 -1551.1666 2894
1650.6666 -1548.4445 2894
1740.1666 -1557 2894
1851.3636 -1571.6364 2894
1950.5834 -1578.1666 2894
2051 -1593.625 2894
2146.7778 -1587.5 2894
2237.9092 -1588.4546 2894
2824.3333 -1578.3334 2894
-734.45453 -1406.8182 2894
-652.125 -1432.8125 2894
-557.08331 -1435.5 2894
-455.77777 -1441 2894
-351.60001 -1441 2894
-247.6875 -1445.8125 2894
-153 -1435.5 2894
462.28571 -1464 2894
556.35712 -1463.5 2894
641.06665 -1469.0667 2894
720.5 -1492.5 2894
-793 -1373.4286 2894
774.83331 -1509 2907
860.59998 -1516 2907
948.73334 -1518.8 2907
1059.2 -1527.2 2907
1155.5834 -1529.125 2907
1241.5714 -1527 2907
1359.6666 -1539.4166 2907
1448.375 -1560.9375 2907
1529.375 -1560.5 2907
1666.4445 -1551.5555 2907
1752.5 -1559.3334 2907
1849.0667 -1569.8 2907
1951.4667 -1580 2907
2048.8572 -1591.5 2907
2137.3914 -1587.9565 2907
2250.0769 -1590.4615 2907
-716.5 -1412.25 2907
-667 -1431.6666 2907
-550.45453 -1436.5454 2907
-461.66666 -1444.8889 2907
-336.10001 -1441 2907
-251.47826 -1444.0435 2907
-159.81818 -1437.9091 2907
434.88889 -1462.8889 2907
553.0769 -1464.6923 2907
648.16669 -1470.7778 2907
720.16669 -1492.5 2907
-768.81818 -1394.4546 2907
769.71429 -1508 2919
856.69232 -1517.8462 2919
949.21429 -1518.1428 2919
1055.3334 -1525 2919
1151.2 -1524.3334 2919
1223.1666 -1529 2919
1355.1538 -1537.6154 2919
1440.8334 -1555.1111 2919
1550.3636 -1558.4546 2919
1639.25 -1551.75 2919
1750.5714 -1559.5714 2919
1845.0714 -1565.4286 2919
1974.6 -1578.4 2919
2058.1001 -1590.3 2919
2144.3635 -1584 2919
2247.75 -1589.8334 2919
2350.1667 -1549.5416 2919
-715.5 -1410.6666 2919
-652.9231 -1433.6154 2919
-529.33331 -1440 2919
-436.81818 -1447 2919
-354.71429 -1444 2919
-253.17647 -1440.8235 2919
-155.41667 -1437.75 2919
450.875 -1465.75 2919
548.46667 -1465.4 2919
653.73682 -1469.7368 2919
726.625 -1491.5 2919
-782.54547 -1378.4546 2919
2298 -1605 2932
774 -1507.7142 2932
855.3125 -1516.875 2932
940.15387 -1513.2307 2932
1050 -1523.4 2932
1141.4736 -1522 2932
1249.2142 -1529 2932
1351.9166 -1537.1666 2932
1450.1765 -1554.7646 2932
1543 -1563.6 2932
1657.7778 -1555.4445 2932
1734.3636 -1560.8182 2932
1857.6428 -1566.6428 2932
1940.6364 -1587.8182 2932
2057.2144 -1587 2932
2146.5601 -1579.8 2932
2246.9285 -1588.5 2932
2353.45 -1552.2 2932
-727.875 -1406.75 2932
-651.14288 -1435.5 2932
-553.69232 -1441.0769 2932
-449.07144 -1447 2932
-351.35715 -1445.5 2932
-249.64285 -1440 2932
-152.92308 -1437.3077 2932
-95 -1405 2932
450.30768 -1465.5385 2932
550.93335 -1464.6666 2932
653.3125 -1466.125 2932
729.75 -1491.5 2932
-791.75 -1393.25 2932
2315 -1604 2944
782.16669 -1508 2944
853.63159 -1515.3684 2944
952.51849 -1508.5186 2944
1058.0909 -1521.0454 2944
1150.4091 -1519.1364 2944
1250.8667 -1529 2944
1361.5 -1538.5 2944
1440.3182 -1545.8182 2944
1545.0834 -1565.3334 2944
1652.8334 -1556 2944
1747.875 -1559.9375 2944
1854.6111 -1562.6111 2944
1951.5714 -1587 2944
2061.375 -1586.625 2944
2138.9697 -1573.8182 2944
2250.2666 -1587.2667 2944
2351.9644 -1556.6786 2944
-736.14288 -1406 2944
-656.70587 -1434.0588 2944
-554 -1441.1538 2944
-461.36365 -1446 2944
-337 -1446 2944
-247.16667 -1437.0555 2944
-144.66667 -1437.8334 2944
451.15384 -1468.3077 2944
553.64703 -1462.9412 2944
653.06665 -1465 2944
739 -1491.6666 2944
936.5 -1494 2944
-799.36365 -1352.6364 2944
2325 -1605 2957
2901 -1605 2957
789.33331 -1506.6666 2957
852.35297 -1514.2941 2957
958.79999 -1505 2957
1045.25 -1518.8125 2957
1151.75 -1516.9166 2957
1228.7778 -1528 2957
1358.5 -1537.5 2957
1453.375 -1544.625 2957
1546.75 -1567.6666 2957
1645 -1559.5 2957
1752.7333 -1559.2667 2957
1860.6957 -1556.6086 2957
1940.95 -1584.35 2957
2063.1819 -1583.6818 2957
2139.353 -1568.3529 2957
2258.5652 -1583.3914 2957
2339.814 -1559.0233 2957
-739 -1404 2957
-661.83331 -1429.4445 2957
-561.89471 -1435.0526 2957
-449.53333 -1446.8667 2957
-346.08334 -1447.9166 2957
-252.11905 -1426.6666 2957
-163.07143 -1441 2957
-92.5 -1406.5 2957
440.71429 -1464 2957
536.25 -1466 2957
672.11108 -1468.3334 2957
737.61536 -1491.3077 2957
934.45453 -1492.0909 2957
-796 -1364 2957
795 -1507 2970
841.27777 -1513.6111 2970
994.66669 -1509.3334 2970
1043.5769 -1516.1538 2970
1146.9286 -1516 2970
1251.5 -1531.5 2970
1351.1428 -1537 2970
1447.8462 -1536.0769 2970
1549 -1568.9231 2970
1667.4 -1563 2970
1762 -1563 2970
1850.75 -1556 2970
1941.675 -1576.125 2970
2054.6499 -1580.85 2970
2162.2114 -1552.7693 2970
2240.9131 -1577.6086 2970
2332.4109 -1553.411 2970
-752.55554 -1409.2222 2970
-639.97223 -1425.0555 2970
-570.61768 -1424.9412 2970
-434.20001 -1446.8 2970
-349 -1447.5 2970
-246.30556 -1418.8611 2970
-152 -1440.8462 2970
450.84616 -1468.3077 2970
544.875 -1462.375 2970
653.76471 -1462.9412 2970
746.46667 -1490.6666 2970
951.38464 -1496.7693 2970
-612 -1396 2970
-591 -1396 2970
2912 -1605 2983
852.09521 -1511.6666 2983
1050 -1512.25 2983
1148.7 -1516.8 2983
1246.4667 -1531.2667 2983
1350.0667 -1536.8667 2983
1449.9131 -1532.5652 2983
1540 -1565.9474 2983
1641.8182 -1564.9091 2983
1754.6666 -1562.5333 2983
1855.4375 -1556 2983
1949.75 -1564.75 2983
2048.5652 -1580.0435 2983
2152.4285 -1540.8572 2983
2228.8333 -1553 2983
-747 -1408.4166 2983
-652.57776 -1418.1777 2983
-542.72729 -1432.8636 2983
-434.51282 -1438.4359 2983
-358.92001 -1439.8 2983
-250.73685 -1413.0526 2983
-154.33333 -1441.0834 2983
-92.5 -1412.5 2983
458.91666 -1473.75 2983
554.70001 -1462.2 2983
649.66669 -1461.5 2983
746.5 -1487.75 2983
838.33331 -1500 2983
952.73682 -1493.7368 2983
1001 -1500 2983
-621 -1395 2983
-593 -1395 2983
857.29999 -1508.8 2996
1043.3334 -1509.8889 2996
1148.6 -1517.2 2996
1257.9231 -1530.7693 2996
1359.3414 -1527.1708 2996
1438.3409 -1519.2046 2996
1546.0869 -1561.2609 2996
1640.2941 -1563.4117 2996
1753.5 -1563 2996
1837.6666 -1558.6111 2996
1951.2667 -1553.1333 2996
2048.4666 -1577.4667 2996
2142 -1540.3334 2996
2259.1001 -1550.025 2996
-739.53845 -1407.4615 2996
-668.15387 -1403.6923 2996
-549.33331 -1425.2667 2996
-443.86957 -1430.2174 2996
-358.77966 -1431.7288 2996
-237.39999 -1414.3 2996
-161.94444 -1437.5555 2996
-83 -1401 2996
390.5 -1418.5 2996
449.38461 -1467.7693 2996
530.33331 -1465.1666 2996
675.14288 -1464 2996
747.67999 -1482.48 2996
807.25 -1497.25 2996
947.91669 -1494.3334 2996
1006 -1499 2996
-620.5 -1394 2996
-596 -1394 2996
2933.3333 -1612 3009
859.8125 -1508.1875 3009
1059.7646 -1511.7646 3009
1145.9286 -1518 3009
1238 -1528.4 3009
1355.5385 -1518.1154 3009
1454.5333 -1513.4667 3009
1558.5518 -1557.4138 3009
1629.1666 -1558.5 3009
1755.6666 -1563.5555 3009
1867.25 -1557.625 3009
1947.3182 -1545.7727 3009
2038.4 -1576 3009
2148.4736 -1536.9474 3009
2267.2258 -1543.2581 3009
2309.926 -1551.1111 3009
2910 -1583.5 3009
-760.29999 -1411.2 3009
-541.29999 -1430.8 3009
-455 -1429.75 3009
-348 -1420.3 3009
-249.75 -1409.9166 3009
-156.83333 -1437.3334 3009
-93.5 -1417.5 3009
454.90909 -1471.2727 3009
550 -1464.9091 3009
646.5 -1463 3009
749.53845 -1479.3077 3009
819.79999 -1497.6 3009
958.27271 -1493.2727 3009
1019.9 -1496.9 3009
1382.4546 -1495.8182 3009
1411.25 -1497.25 3009
-803 -1393 3009
-652.30768 -1397.3077 3009
-588.5 -1400 3009
869.25 -1505 3022
904.5 -1505 3022
1074.8334 -1510.8334 3022
1145.5 -1519 3022
1271.1852 -1524.9259 3022
1330.4688 -1516.6562 3022
1469.0834 -1512 3022
1556.4773 -1542.5227 3022
1645.0909 -1558.5 3022
1749.5 -1566.375 3022
1839.5714 -1559 3022
1948.5454 -1528.8182 3022
2041.8125 -1576.4375 3022
2144.6799 -1542.52 3022
-760 -1410.375 3022
-533.75 -1434.5834 3022
-450.85715 -1427.5 3022
-341.36365 -1417.4546 3022
-246.5 -1413 3022
-155.46666 -1436.3334 3022
383.5 -1416.5 3022
448.92307 -1466 3022
548.40002 -1464.8667 3022
662 -1463 3022
748.52631 -1476.6316 3022
819.5 -1495.6666 3022
945.5 -1493.625 3022
1025.375 -1494.5 3022
1369.1111 -1494.8889 3022
1429.5 -1498 3022
-776.33331 -1367.3334 3022
-664.90002 -1399 3022
-594 -1399 3022
2953.5 -1615.5 3036
873.25 -1505 3036
1075.1428 -1509 3036
1149.8334 -1521.9166 3036
1254.8334 -1520.9445 3036
1318.5555 -1507.3334 3036
1475.125 -1509.375 3036
1551.9231 -1532.1538 3036
1643.1111 -1555 3036
1752.2222 -1568.2222 3036
1852.75 -1557.9166 3036
1956.4688 -1527.0938 3036
2045.8462 -1573.3077 3036
2145 -1546.75 3036
-758.38464 -1411.1538 3036
-544.08331 -1429.6666 3036
-451.70001 -1428.1 3036
-346.18182 -1417.8182 3036
-249.81818 -1414.1818 3036
-154 -1435.1666 3036
-94.5 -1423.5 3036
378 -1416 3036
458.86667 -1470.6 3036
543.29999 -1464.1 3036
648.72729 -1469 3036
752.875 -1476.5 3036
821.75 -1496.25 3036
958.45453 -1492.9091 3036
1035.4166 -1493.9166 3036
1354.1428 -1498 3036
1425.2 -1498 3036
-768.46155 -1353.8462 3036
-644.71429 -1398 3036
2966.5 -1622.5 3049
869.875 -1504 3049
905.5 -1504 3049
1086.8334 -1506.3334 3049
1143.5 -1520.625 3049
1257.2142 -1515.5358 3049
1314.6666 -1505.1666 3049
1474.4286 -1506 3049
1547.9524 -1528.3334 3049
1652.0588 -1554.8823 3049
1748.05 -1569.7 3049
1845.7059 -1557.7646 3049
1941.25 -1532.25 3049
2033.6333 -1551.2667 3049
2147.6667 -1547.381 3049
-761 -1409.8334 3049
-658.85712 -1404 3049
-550.25 -1428.25 3049
-466.77777 -1433.5555 3049
-363.20001 -1418 3049
-254.60001 -1418 3049
-149.36363 -1437.4546 3049
-91 -1418 3049
372.5 -1415 3049
449.18182 -1464.1818 3049
533.81818 -1467.4546 3049
635.33331 -1469 3049
754.25 -1478.3334 3049
823.28571 -1495 3049
934.5 -1497 3049
1044.6428 -1492 3049
1363.5 -1497 3049
1417 -1497 3049
-774 -1360.6 3049
2983.5 -1626.5 3063
877.42859 -1504 3063
913.33331 -1504 3063
1093 -1504 3063
1145.6666 -1519 3063
1248.4375 -1514.375 3063
1315.8 -1504 3063
1467.8572 -1505 3063
1544.9375 -1523 3063
1646.4615 -1550 3063
1738.3572 -1570 3063
1849.2 -1555.2667 3063
1924.5333 -1533.2667 3063
2049.24 -1546 3063
2143.8948 -1555.4736 3063
-752.25 -1409.6875 3063
-656.16669 -1403 3063
-545.55554 -1433.8889 3063
-444 -1427.2 3063
-341.75 -1423.25 3063
-254 -1419 3063
-161.71428 -1438.4286 3063
-95.5 -1425 3063
388.5 -1428.5 3063
459 -1469 3063
558.29999 -1468 3063
654.63635 -1475 3063
763.375 -1479.5 3063
821.75 -1495.25 3063
955.59998 -1497 3063
1051.1666 -1491.75 3063
1276.5 -1497 3063
1360.875 -1497 3063
1402 -1497 3063
-765.75 -1353.875 3063
2986.5 -1619 3077
870.625 -1504 3077
924.75 -1504 3077
1098 -1504 3077
1148.5264 -1517.6316 3077
1241.35 -1514.5 3077
1332.1428 -1504 3077
1441 -1505.1666 3077
1549.2858 -1521.6428 3077
1640.9091 -1545.7273 3077
1750.625 -1568 3077
1847.7778 -1553.6111 3077
1919.6 -1545.4 3077
2066.8845 -1547.5385 3077
2150.6521 -1537.0435 3077
-752.875 -1407.8125 3077
-652 -1406.5 3077
-550.42859 -1435.7142 3077
-459.20001 -1433 3077
-363 -1424 3077
-247.5 -1424 3077
-146.09091 -1442.1818 3077
-96 -1424.5 3077
378.33334 -1424.3334 3077
464.41177 -1466.5294 3077
539.08331 -1468.5834 3077
648.77777 -1475 3077
743.58331 -1477.9166 3077
822.20001 -1494.6 3077
993.5 -1496 3077
1055.7858 -1491.5 3077
1271.3334 -1496 3077
1344 -1496 3077
-764.91669 -1358.75 3077
2996 -1612 3091
3014.5 -1644.5 3091
870.85712 -1503 3091
943.38464 -1503 3091
1158.7142 -1515.1904 3091
1235.0476 -1511.2858 3091
1349.5834 -1503 3091
1453.5555 -1508.3334 3091
1556.2858 -1521.5 3091
1646.0769 -1545.6923 3091
1751.9231 -1568.3846 3091
1844.1765 -1550.7646 3091
1923.4 -1541 3091
2083 -1555.3889 3091
2148.6287 -1535.2285 3091
-757.9231 -1405.2307 3091
-658.33331 -1409 3091
-543.125 -1441.75 3091
-449 -1433.75 3091
-332 -1430 3091
-245.33333 -1428.6666 3091
-149.3 -1441.5 3091
-95.333336 -1418.6666 3091
368 -1418.6666 3091
454.84616 -1462 3091
543.33331 -1468.1666 3091
640.16669 -1479.3334 3091
748.5 -1478.875 3091
823.75 -1496 3091
1050.2 -1491.8 3091
1103 -1496 3091
1270 -1496 3091
-761.66669 -1372.7778 3091
3013.5 -1623 3105
871.25 -1503 3105
942.59998 -1503 3105
1006 -1503 3105
1164.5294 -1510 3105
1231.8823 -1506.2941 3105
1333.8889 -1503 3105
1453.5714 -1510 3105
1559.1818 -1520.7273 3105
1647.3334 -1544.1111 3105
1757.3 -1564.85 3105
1842.5601 -1550.6 3105
1922.3334 -1544.1666 3105
2096.6667 -1564.6666 3105
2131.3333 -1561.5186 3105
3002 -1598 3105
-731.14288 -1404 3105
-621.5 -1415 3105
-547.85712 -1441.5714 3105
-460.25 -1437.375 3105
-370 -1430 3105
-242.88889 -1430 3105
-148.42857 -1443.5714 3105
-96.5 -1419 3105
451.79999 -1459.4667 3105
545.16669 -1468 3105
650.16669 -1481 3105
744.71429 -1482 3105
809.33331 -1496 3105
1052.8572 -1492.5714 3105
1108 -1496 3105
1264.5 -1496 3105
-756 -1367.6666 3105
-86 -1386 3105
3038 -1637.5 3119
860.59998 -1502 3119
962.40002 -1508.4 3119
1018 -1502 3119
1163.5555 -1509.1111 3119
1244.75 -1502 3119
1370.6 -1508.4 3119
1446.5714 -1513 3119
1554.4615 -1519.6923 3119
1653.7778 -1546.3334 3119
1765.2222 -1558.0555 3119
1838.1666 -1544.9333 3119
1924.7 -1542 3119
2125.1428 -1572 3119
3005 -1586.5 3119
-718 -1409.3334 3119
-661.88892 -1414.8889 3119
-551.42859 -1446.7142 3119
-448 -1437.4286 3119
-324 -1436 3119
-269.25 -1436 3119
-134.5 -1445.9 3119
-94 -1407 3119
383.66666 -1436.3334 3119
460.07144 -1459.3572 3119
538.11108 -1467.5555 3119
644.625 -1485 3119
745.83331 -1482.5834 3119
809.5 -1495 3119
1070.4 -1495 3119
1109.5 -1495 3119
1267 -1495 3119
-749.66669 -1355.2222 3119
3045.8 -1639.8 3133
838.59998 -1502 3133
952.66669 -1509 3133
1024 -1504.8 3133
1163.3077 -1506.8462 3133
1248.5 -1502 3133
1357 -1509 3133
1463.7142 -1516 3133
1546.1538 -1517.8462 3133
1647.3334 -1540.4 3133
1767.15 -1553.55 3133
1840.125 -1533.0625 3133
1927.3636 -1534.3636 3133
-726.5 -1409.5 3133
-626 -1423.3334 3133
-539.75 -1452.375 3133
-451.14285 -1439 3133
-377 -1436 3133
-244.5 -1436 3133
-143.85715 -1443.3572 3133
-94 -1406 3133
373 -1430.6666 3133
445.39999 -1456.2 3133
545.25 -1469.25 3133
653.08331 -1485.8334 3133
783.75 -1488.75 3133
805.5 -1494 3133
1081.4 -1494 3133
1103 -1494 3133
1258 -1494 3133
-752.125 -1359.25 3133
3055 -1627 3148
858.33331 -1505.4445 3148
920.33331 -1509 3148
1038.5 -1505 3148
1163.0769 -1505.3077 3148
1247.75 -1501 3148
1326.5 -1509 3148
1422.5 -1516 3148
1555.5 -1519.2 3148
1647.3077 -1534.3846 3148
1770.8182 -1540.0454 3148
1837.579 -1518.3948 3148
1926.3199 -1533 3148
3022 -1586.5 3148
-726.25 -1412.75 3148
-659.5 -1423.1 3148
-476.33334 -1447.3334 3148
-345.66666 -1442 3148
-250.44444 -1442 3148
-139.85715 -1444.5714 3148
-94 -1405 3148
379.66666 -1435 3148
466 -1461 3148
542.09998 -1469.2 3148
638.59998 -1488.4 3148
747.23077 -1487.5385 3148
806 -1494 3148
1090 -1494 3148
-747.59998 -1349.4 3148
3070.75 -1638 3162
863.77777 -1506.4445 3162
952.36365 -1513.0909 3162
1046.7142 -1507.2858 3162
1148.5 -1505.2 3162
1247.1538 -1501 3162
1353.2 -1512.8 3162
1460 -1521.6 3162
1555.6666 -1520.0834 3162
1648.8 -1533.2 3162
1759.6923 -1528.1154 3162
1848.6 -1512.6666 3162
1919.9375 -1522.5 3162
3024 -1582 3162
-734.75 -1411.75 3162
-636.5 -1428.75 3162
-446.36365 -1443.8182 3162
-331 -1447.6666 3162
-250.5 -1449 3162
-143.45454 -1445.3636 3162
-95 -1404 3162
377.25 -1437.75 3162
452.54544 -1459.6364 3162
540.375 -1469.25 3162
652.90912 -1490.4546 3162
755.75 -1487.75 3162
805.5 -1493 3162
-751.33331 -1354.6666 3162
3076 -1623.5 3177
865.33331 -1508 3177
948.66669 -1512.6666 3177
1035 -1512.375 3177
1167.25 -1508 3177
1201 -1508 3177
1336 -1512 3177
1435.75 -1523 3177
1570.3334 -1518.5555 3177
1651.5 -1528.2222 3177
1743.0385 -1547.2693 3177
1885 -1516.1111 3177
1914.3846 -1514.7693 3177
2969 -1578.5 3177
3031 -1589.5 3177
-729 -1417 3177
-658.25 -1431.5 3177
-478 -1450.6666 3177
-375 -1448 3177
-239.33333 -1448 3177
-144.22223 -1449.2222 3177
-95 -1404 3177
374.79999 -1433.2 3177
450.20001 -1460.2 3177
549.63635 -1472.8182 3177
658.09998 -1492.3 3177
750.72729 -1493 3177
824.5 -1500 3177
1089 -1500 3177
1111.3334 -1500 3177
1266.6666 -1500 3177
-748 -1342.8572 3177
3090.5 -1623.5 3192
3106.6667 -1654.6666 3192
869.33331 -1508 3192
933.57141 -1512 3192
1053 -1512.6666 3192
1139.3334 -1508 3192
1233.2858 -1508 3192
1349.75 -1515.875 3192
1456.2222 -1527.3334 3192
1545.2 -1524.6 3192
1655.3125 -1524 3192
1735.0217 -1547.7391 3192
2944.3333 -1574.6666 3192
3041.75 -1591.75 3192
-736.79999 -1416.2 3192
-651 -1435.9 3192
-453.33334 -1450.4166 3192
-342.66666 -1455 3192
-247.3 -1455 3192
-137.44444 -1446.8889 3192
-96 -1403 3192
128 -1403 3192
371.5 -1436.5 3192
459 -1462.2 3192
558.11108 -1475.1111 3192
626 -1493 3192
749.71429 -1493 3192
821 -1500 3192
3090 -1608.5 3207
3120 -1655.1666 3207
869.875 -1507 3207
946.46155 -1514.0769 3207
1046.6364 -1516.6364 3207
1152 -1511 3207
1252.9166 -1507.6666 3207
1356.25 -1518.375 3207
1428.25 -1528 3207
1569.5 -1524.6666 3207
1660.2667 -1520.1333 3207
1731.76 -1540.24 3207
2950.5715 -1573.7142 3207
3067 -1597 3207
-728.20001 -1422.8 3207
-650.33331 -1439.3334 3207
-467 -1454 3207
-352.125 -1458 3207
-299 -1462 3207
-139.27272 -1449.6364 3207
-96 -1402 3207
125 -1402 3207
369.22223 -1430.8889 3207
437.22223 -1461.1111 3207
546.20001 -1473.6 3207
649.81818 -1497.0909 3207
747 -1497.0909 3207
813.33331 -1500 3207
-748.16669 -1357.8334 3207
3142 -1673 3222
858.66669 -1507 3222
950.52942 -1513.0588 3222
1052.5 -1518 3222
1165 -1514 3222
1240.5454 -1508.9091 3222
1340.4 -1518.8 3222
1459.7778 -1534.3334 3222
1548.4546 -1531.4546 3222
1658.6471 -1517.8823 3222
1725.6666 -1534.3334 3222
2951.6667 -1572.3334 3222
3028.5 -1597 3222
-735.5 -1425.25 3222
-656.90002 -1441.9 3222
-452 -1454 3222
-225 -1461 3222
-126.85714 -1444 3222
129 -1401 3222
390 -1450 3222
442.10001 -1462 3222
533.75 -1472.625 3222
640.77777 -1496.3334 3222
747.33331 -1499 3222
813.5 -1499 3222
3073.25 -1605 3237
3133.1428 -1638.2858 3237
691.66669 -1506 3237
864.11108 -1508.6666 3237
954.3125 -1510.3125 3237
1049.5555 -1521.3334 3237
1145.0834 -1515.1666 3237
1234.4286 -1515 3237
1352.6 -1522.1 3237
1434.6 -1533.2 3237
1565.5 -1532.5 3237
1654.125 -1516.4375 3237
1706 -1506 3237
2949.5 -1570.75 3237
3009 -1597 3237
-737.28571 -1425.7142 3237
-150.33333 -1454.0834 3237
374 -1436.3334 3237
453.29999 -1464.1 3237
549.5 -1477.625 3237
643 -1497 3237
756.41669 -1498 3237
824.83331 -1498 3237
931 -1498 3237
1694 -1498 3237
-744.75 -1350.125 3237
-97 -1388 3237
3035 -1605 3253
3148.8889 -1641.5555 3253
687.66669 -1506 3253
707 -1506 3253
878.44446 -1508.3334 3253
958.90912 -1508.6364 3253
1034.0769 -1523.4615 3253
1153.2222 -1515.6666 3253
1260.0625 -1511.25 3253
1344.1111 -1521 3253
1464 -1540.5714 3253
1546.6364 -1539.8182 3253
1654.7693 -1516.9231 3253
1710 -1506 3253
2954.8 -1570 3253
3004.5 -1597 3253
-738.83331 -1428.1666 3253
-135 -1447.8 3253
367 -1431 3253
447.20001 -1464.8 3253
557.81818 -1480.0909 3253
622.75 -1498 3253
767.75 -1498 3253
817.40002 -1498 3253
954.85712 -1498 3253
1695 -1498 3253
-740.20001 -1347 3253
-98 -1384 3253
3072.4285 -1611 3268
3157.5 -1644.1666 3268
671.5 -1505 3268
721.40002 -1505 3268
871.125 -1505 3268
950.71429 -1506.1428 3268
1041.5 -1518.9445 3268
1160.8572 -1520 3268
1241.125 -1514.75 3268
1343.625 -1521.375 3268
1436.8572 -1539 3268
1568.875 -1538.5 3268
1652.8182 -1518.8182 3268
2962.3999 -1571 3268
3007 -1597 3268
-152.23077 -1456.5385 3268
135 -1405 3268
384 -1445.5 3268
448.09091 -1464.6364 3268
543.33331 -1477.5555 3268
610 -1497 3268
963.16669 -1497 3268
1695 -1497 3268
-98 -1382 3268
3052.25 -1611 3284
3162.8333 -1633.1666 3284
3206 -1682 3284
644.16669 -1505 3284
759.70001 -1505 3284
848.30768 -1505 3284
932 -1505 3284
1047.3334 -1517.5 3284
1148.8462 -1520 3284
1247.3572 -1514.2858 3284
1356.875 -1526 3284
1457.1428 -1544.2858 3284
1546.7273 -1546.0909 3284
1658.2 -1520.9 3284
2959.8333 -1567.6666 3284
3006 -1590 3284
-744.88892 -1430.2222 3284
-140.85715 -1447.4286 3284
135.5 -1405 3284
371.83334 -1435.5 3284
450.60001 -1465.2 3284
545.40002 -1479.4 3284
609.33331 -1497 3284
975.5 -1497 3284
1696 -1497 3284
-738.25 -1346.5 3284
-99 -1381 3284
3063.1667 -1612.6666 3300
3155 -1629.3334 3300
3212.5 -1664.75 3300
662.75 -1508 3300
751.76923 -1505.8462 3300
840.79999 -1504 3300
937.59998 -1504 3300
1048.4615 -1513.2307 3300
1146.6154 -1520 3300
1249.1111 -1515.5555 3300
1348.9 -1524.6 3300
1454.1428 -1546.4286 3300
1545.5 -1548.3334 3300
1652.8182 -1524.8182 3300
3024.5 -1593.5 3300
-153.91667 -1454.5834 3300
132 -1404 3300
367.33334 -1432 3300
452.10001 -1466.4 3300
546.88892 -1480.1111 3300
608.5 -1497 3300
-737.14288 -1352.5714 3300
3076.8333 -1615.6666 3316
3163.6667 -1630.6666 3316
3223.1428 -1655 3316
658.09998 -1508 3316
744.06665 -1506.1333 3316
843.81818 -1505.4546 3316
955.22223 -1506.6666 3316
1054 -1512.125 3316
1152.2307 -1519 3316
1250.4615 -1516.3077 3316
1345.75 -1524.125 3316
1455.8889 -1548.3334 3316
1566 -1548.3334 3316
1667.2727 -1525 3316
1705 -1504 3316
2954.3999 -1566 3316
3012 -1585.5 3316
-153.5 -1452.75 3316
138.33333 -1405.3334 3316
379.75 -1449.25 3316
454.09091 -1467.1818 3316
553 -1482.125 3316
607.66669 -1496 3316
-733.66669 -1344.3334 3316
3077.25 -1613 3332
3151.7144 -1630.4286 3332
3234 -1651.7778 3332
661.40002 -1507 3332
708 -1511 3332
862.20001 -1505.4 3332
943.27271 -1508.8182 3332
1043.6666 -1507.6666 3332
1146.0834 -1519 3332
1247.75 -1519 3332
1345.5 -1525 3332
1442.7142 -1547.7142 3332
1548.7 -1554 3332
1650.9231 -1532.8462 3332
1709 -1507 3332
2956 -1568 3332
3026.3333 -1589 3332
-154.72728 -1451.4546 3332
137.5 -1402 3332
377.33334 -1432.8334 3332
463.14285 -1469.7142 3332
546.85712 -1483.4286 3332
607 -1495 3332
-734.33331 -1360 3332
3077.6667 -1610.3334 3348
3144.8889 -1629.7778 3348
3253.3076 -1658.5385 3348
656.5 -1506.5 3348
747 -1510 3348
850.20001 -1505.8 3348
944.81818 -1509.3636 3348
1049.1818 -1508.3636 3348
1147.6923 -1518 3348
1248.7142 -1520.8572 3348
1350.5 -1526.8 3348
1444.8572 -1550 3348
1544.7273 -1555.8182 3348
1650.8889 -1533.1111 3348
1709 -1510.25 3348
2954.3999 -1568.4 3348
3027.25 -1587 3348
-160 -1452.9166 3348
142 -1401 3348
384 -1441.6 3348
441.29999 -1467.8 3348
548.36365 -1484.8182 3348
606 -1495 3348
-727 -1341.625 3348
3084 -1609 3365
3151.2727 -1629.7273 3365
3263 -1655.75 3365
3301 -1676 3365
656.90002 -1506.8 3365
750.69232 -1510 3365
841.30768 -1503.8462 3365
948.30768 -1510 3365
1082.3334 -1512.6666 3365
1145.9091 -1514.3636 3365
1241.8235 -1519.8823 3365
1346.9 -1526 3365
1457.375 -1554 3365
1548.3846 -1556.7693 3365
1637.1333 -1536.6666 3365
1714 -1510 3365
2954 -1571.25 3365
3035.3333 -1587.6666 3365
-170.53334 -1455.5333 3365
385.75 -1435 3365
458.625 -1472 3365
546.90912 -1484.6364 3365
601 -1494 3365
-729 -1336.5 3365
3087 -1605 3381
3152.7 -1627.1 3381
3242.8889 -1644 3381
3320 -1679 3381
656.18182 -1507.0909 3381
750.33331 -1510 3381
854.5 -1505 3381
948.83331 -1510 3381
1048 -1510 3381
1148.3334 -1511.1666 3381
1248.8889 -1517 3381
1352.7778 -1526.7778 3381
1443.625 -1552 3381
1582.7142 -1552.4286 3381
1650.9091 -1535.1818 3381
1716 -1511.5 3381
2944 -1567 3381
3034 -1587.6666 3381
-160 -1447 3381
391.66666 -1459.3334 3381
438 -1465 3381
546 -1484 3381
-727.11108 -1348.2222 3381
-570 -1398 3381
3094 -1605 3398
3150 -1623.6666 3398
3252.5454 -1644.2727 3398
3332 -1671 3398
651.63635 -1506.0909 3398
742.5 -1507.5 3398
853.38464 -1505.3077 3398
941.08331 -1508.3334 3398
1045 -1509 3398
1169 -1511 3398
1235.5714 -1520.4286 3398
1360 -1528.2 3398
1446.2858 -1553.5714 3398
1550.4286 -1561 3398
1653.4 -1537 3398
1719.8 -1513.8 3398
2953.2856 -1569.5714 3398
3062.7144 -1592.4286 3398
-544.34613 -1434.8462 3398
-161.2 -1447.4 3398
396.33334 -1453 3398
457.39999 -1475.4 3398
547 -1483 3398
878 -1493 3398
-728.79999 -1353.2 3398
-568 -1398 3398
3150.8889 -1620.1111 3415
3250 -1642.3334 3415
3327.3333 -1659.6666 3415
655.86664 -1505.2667 3415
748.46155 -1506.5385 3415
847.53845 -1505.3077 3415
940.40002 -1508.2 3415
1046.75 -1509.6666 3415
1155 -1513 3415
1245 -1520 3415
1348.4546 -1526.4546 3415
1449 -1554.3334 3415
1553.7693 -1561.3077 3415
1651.1666 -1542.3334 3415
1718 -1521 3415
3051.6001 -1590.6 3415
3102 -1597 3415
-536.88232 -1425.2354 3415
-256.88235 -1456.7646 3415
-161 -1448 3415
439.08334 -1459 3415
550 -1483 3415
602 -1493 3415
886 -1493 3415
-728 -1360.8 3415
-575 -1396 3415
3161.3333 -1620.1111 3432
3250.4443 -1641.4445 3432
3337.6667 -1659.6666 3432
665 -1508 3432
770 -1508 3432
826 -1508 3432
968.59998 -1511.2 3432
1048.4546 -1508.7273 3432
1147.0909 -1513.0909 3432
1253 -1516.4 3432
1347.0909 -1525.4546 3432
1452.4546 -1553.3636 3432
1555.5714 -1561.2858 3432
1645.8182 -1545.8182 3432
1720 -1524 3432
2962.125 -1566.625 3432
3037 -1590.6 3432
3105 -1597 3432
-527.33331 -1423.8334 3432
-260.5 -1451.5 3432
-143 -1452 3432
433.20001 -1458.3 3432
550.93335 -1481.3334 3432
644.27271 -1498.5454 3432
729.5 -1500 3432
863 -1496.3636 3432
935 -1496.8 3432
1027.5 -1500 3432
-725.28571 -1350.4286 3432
-586 -1395 3432
3167.4546 -1617.3636 3450
3254.3999 -1640.7 3450
3343.25 -1659 3450
660.5 -1508 3450
782 -1508 3450
814 -1508 3450
992 -1508 3450
1052.4 -1508.8 3450
1148.25 -1514 3450
1259 -1510.9474 3450
1334.5555 -1520.8889 3450
1453.8334 -1552.5 3450
1569.2222 -1559.4445 3450
1644.8182 -1547.2727 3450
1727.6666 -1525.3334 3450
2972 -1563.4 3450
3041.0715 -1591.2858 3450
3109.3333 -1597 3450
-653.52942 -1431.2354 3450
-545.5 -1418.2 3450
-253.13333 -1450.4667 3450
-157.55556 -1454.5555 3450
447.13333 -1466 3450
560.46155 -1479.6923 3450
646.64288 -1497.7142 3450
733.25 -1500 3450
875 -1496 3450
959.875 -1495 3450
1034.8948 -1494.9474 3450
-729 -1354.5 3450
-116 -1370.5 3450
3171.7778 -1611.2222 3467
3252.1111 -1639.2222 3467
3349 -1658.4445 3467
786 -1507 3467
826.5 -1507 3467
1093 -1509 3467
1148.1765 -1511.7059 3467
1249.5 -1507 3467
1342.4615 -1516.6154 3467
1457.5 -1551.3334 3467
1547.5333 -1565.6 3467
1632 -1548 3467
1735 -1526.3334 3467
3044.6924 -1586.7693 3467
3108.3333 -1597 3467
-531.16669 -1424.6666 3467
-357.4762 -1447.7142 3467
-252.58333 -1448.6666 3467
-128.5 -1448 3467
147 -1401 3467
445.27274 -1452.6364 3467
558.30768 -1477.4615 3467
644.18182 -1492.0909 3467
733.375 -1496.5 3467
863 -1499 3467
973.44446 -1491.8889 3467
1057.2157 -1478.1569 3467
1278 -1499 3467
1306.5 -1499 3467
-724 -1352.6666 3467
3174.3999 -1606.6 3485
3242 -1629.6471 3485
3341.3999 -1651.6 3485
3403 -1679 3485
794 -1507 3485
818.40002 -1507 3485
1153.7273 -1510.6364 3485
1231.5 -1507 3485
1364.3125 -1518 3485
1436.875 -1544.875 3485
1558.1 -1560.4 3485
1646 -1553.0909 3485
1730.7778 -1535.1111 3485
2844.625 -1555 3485
2994 -1564 3485
3040.4285 -1578.2142 3485
3100 -1597 3485
-651.9231 -1424.4615 3485
-546 -1425 3485
-353.07693 -1438.9615 3485
-250.2 -1449.7 3485
144 -1401 3485
454.88889 -1477.1111 3485
520 -1482 3485
656 -1490.2142 3485
753.89471 -1484.4736 3485
852.79999 -1499 3485
944.09088 -1496.0909 3485
1063.421 -1458.2632 3485
1109.5714 -1477.7858 3485
1280.5 -1499 3485
1315.3334 -1495.4445 3485
3161.3 -1605 3503
3254 -1624.7778 3503
3341.6667 -1649.5555 3503
3418.25 -1681 3503
847.42859 -1506 3503
1161.8334 -1509.75 3503
1233.6666 -1506 3503
1374.5 -1514.625 3503
1447.4 -1546.8 3503
1551.1538 -1559.6923 3503
1648.8334 -1552.6666 3503
1745.2222 -1529.3334 3503
2946.4546 -1564 3503
3051.2942 -1574.5883 3503
3100 -1597 3503
3227 -1597 3503
-553.16669 -1424.1666 3503
-347.5 -1435 3503
-246.875 -1452 3503
-143.71428 -1447.4286 3503
451.11111 -1461.7778 3503
549.90912 -1483.4546 3503
651.41669 -1487.3334 3503
768.09998 -1456.7 3503
816 -1496.4 3503
945.09998 -1496.4 3503
1045.4546 -1466.1818 3503
1125.8823 -1471.1765 3503
1291 -1498 3503
1338.625 -1493 3503
-724.66669 -1353.0834 3503
3158.6667 -1605 3521
3263.2942 -1617.7646 3521
3348.1538 -1648.2307 3521
3420 -1672.5 3521
868.28571 -1506 3521
901 -1506 3521
1177.4286 -1507.1428 3521
1244.2 -1506 3521
1386.1666 -1512.6666 3521
1451.8422 -1543.421 3521
1548.7273 -1557.2727 3521
1646.3636 -1551.0909 3521
1745.7273 -1530.7273 3521
2859.3157 -1551.3158 3521
2919.8 -1560.7 3521
3086.75 -1578.25 3521
3113.5 -1595 3521
3239.6001 -1597 3521
-646.45453 -1421.8182 3521
-556.71429 -1426.8572 3521
-357.36365 -1437.8182 3521
-253 -1453.5 3521
149 -1407 3521
463.375 -1466.75 3521
558 -1482.7778 3521
646.70001 -1486.6 3521
773.32355 -1453.9706 3521
817.70001 -1487.8 3521
959.11108 -1497 3521
1052.2778 -1462.2778 3521
1151.8518 -1474.7407 3521
1244.3334 -1498 3521
1339.0909 -1492.2727 3521
1728.5555 -1487.5555 3521
-725.25 -1342.75 3521
3167.3333 -1607.6666 3539
3279.3999 -1611.6 3539
3349.2144 -1642.5714 3539
3437.2 -1674.8 3539
876.83331 -1505 3539
914.33331 -1505 3539
1267.1666 -1505 3539
1393.3334 -1508 3539
1449.8334 -1536.5834 3539
1560.3 -1552.6 3539
1652 -1551.6666 3539
1737.3125 -1533.3125 3539
2956.3 -1566 3539
3056.75 -1569.75 3539
3118 -1588.3334 3539
3260 -1597 3539
-546.33331 -1434.8334 3539
-341.55554 -1439 3539
142 -1406 3539
462.88889 -1465.6666 3539
529.33331 -1491.6666 3539
640.16669 -1485.8334 3539
759.88574 -1472.8286 3539
819.61536 -1474.0769 3539
985 -1497 3539
1037.75 -1472.125 3539
1170.8 -1476.3 3539
1214.8 -1495.4 3539
1355.6154 -1488.7693 3539
1715.5 -1495 3539
-1053 -1306 3539
-724.20001 -1350 3539
-128.33333 -1361.3334 3539
3178.3999 -1610.4 3558
3247.7 -1609.5 3558
3353.1333 -1635.4 3558
3449 -1676.1666 3558
877.40002 -1505 3558
940 -1505 3558
1269.7142 -1505 3558
1307.5 -1505 3558
1452.6666 -1530.381 3558
1541.9091 -1553.3636 3558
1650.6154 -1542.3846 3558
1735.1875 -1525.8125 3558
2952.1667 -1559.4166 3558
3056.3333 -1572 3558
3129.2856 -1585.1428 3558
3278 -1597 3558
-344.53333 -1435.8667 3558
-270.71429 -1442.5 3558
151 -1413 3558
453 -1446.8334 3558
568.5 -1489.5 3558
654.77777 -1489.6666 3558
733.25 -1470.85 3558
822.93335 -1452.8 3558
990 -1497 3558
1041.5834 -1472.3334 3558
1156.2667 -1462.8667 3558
1223.875 -1492.5 3558
1356.5 -1490.375 3558
-1046 -1305 3558
-720.5 -1350.6666 3558
-280.21429 -1371.5714 3558
-132 -1380 3558
3185.25 -1609 3576
3245.8572 -1610.7142 3576
3358.25 -1627.125 3576
3451.75 -1670.0834 3576
877.5 -1504 3576
961.66669 -1504 3576
1267.6666 -1504 3576
1309.6666 -1504 3576
1451.0769 -1522.2307 3576
1547.0909 -1548.4546 3576
1659 -1536.1875 3576
1728.1538 -1546.1538 3576
2958.2727 -1558.5454 3576
3051 -1576.25 3576
3127 -1575 3576
-339.41177 -1428.7059 3576
-278.33334 -1431.625 3576
139 -1408 3576
471.75 -1465.625 3576
570.375 -1480.5 3576
665.29999 -1456 3576
734.76923 -1458.6154 3576
832.90912 -1454 3576
999 -1496 3576
1054.3334 -1468 3576
1156.5 -1464.5 3576
1217.5 -1487.75 3576
1354.1428 -1490.2858 3576
1406 -1496 3576
-1057.4 -1309.4 3576
-718.22223 -1323.3334 3576
-309 -1370 3576
-283.05264 -1377.9474 3576
3190 -1605 3595
3263.25 -1613.75 3595
3347.3 -1615.2 3595
3440.7 -1654 3595
882.5 -1504 3595
941.05884 -1506.3529 3595
1277.3334 -1505.3334 3595
1314 -1506.6666 3595
1469.85 -1519 3595
1538.4138 -1539.931 3595
1667.5714 -1537.8928 3595
1726.1428 -1553.5714 3595
3047.6365 -1571.2727 3595
3136.3125 -1572.3125 3595
-711 -1415.5 3595
-347.71429 -1426.6428 3595
153 -1420 3595
459.33334 -1453.3334 3595
574.9231 -1439.5385 3595
649.40002 -1441.85 3595
719.27271 -1440.6818 3595
846.82355 -1457.7059 3595
1034.0834 -1480.6666 3595
1157.4445 -1461.6666 3595
1233.3334 -1489.6666 3595
1365 -1489.2858 3595
1405.5 -1495 3595
-1038.6666 -1308.5 3595
-713 -1347.75 3595
-314 -1376 3595
-273.11111 -1365.1111 3595
-129 -1360.5 3595
3240.2222 -1618.3334 3614
3360.3076 -1614.3846 3614
3440.9333 -1644.7333 3614
3518.3999 -1686.2 3614
891 -1503 3614
929.5 -1503 3614
1001 -1503 3614
1277 -1503 3614
1318 -1509 3614
1459.2222 -1510 3614
1544.7646 -1529.8235 3614
1653 -1539.3077 3614
3152.6667 -1572.3334 3614
-707.40002 -1418.6 3614
-349 -1422.3846 3614
139 -1410.3334 3614
479.125 -1465 3614
578.5 -1442.7142 3614
645.18182 -1457.4546 3614
724.18182 -1469.2727 3614
866.35712 -1473.5714 3614
900 -1495 3614
1052.2727 -1473.1818 3614
1148.5 -1462.3334 3614
1237.5714 -1487.4286 3614
1353.5 -1495 3614
1409 -1495 3614
1666.2 -1472.6 3614
-1058.2 -1317 3614
-978 -1308 3614
-709 -1354.5555 3614
-345.92307 -1350 3614
-265.75 -1372 3614
3240.25 -1615.75 3633
3355.4285 -1611.2858 3633
3451.55 -1633.3 3633
3519 -1664.8334 3633
717 -1503 3633
957.47369 -1506.3684 3633
1007 -1503 3633
1290.5 -1505 3633
1326.5 -1508.3334 3633
1441.5 -1507 3633
1563.5555 -1532.8889 3633
1645 -1538.5 3633
3209 -1593.3334 3633
-706 -1417.3334 3633
-364.09091 -1426.9091 3633
154 -1426 3633
472 -1451.75 3633
550.5 -1451.625 3633
654.31708 -1446.8536 3633
715.47369 -1461.8948 3633
867.33331 -1460.9166 3633
929.90002 -1491.6 3633
1028.9445 -1478.7222 3633
1150.3334 -1461.5 3633
1241.0834 -1485.75 3633
1381.8 -1494 3633
-1107 -1307 3633
-1038.3334 -1315 3633
-974.5 -1311 3633
-707.33331 -1380.3334 3633
-682.33331 -1332.25 3633
-541 -1381.2307 3633
-459.38461 -1348.6923 3633
-346.48148 -1365.2593 3633
-267.42856 -1372.2858 3633
150 -1387.5 3633
427 -1392 3633
3265.3333 -1620.8334 3653
3351.375 -1615.875 3653
3459.9062 -1620.75 3653
3531.7693 -1646.5385 3653
618 -1502 3653
978 -1502 3653
1295 -1502 3653
1329.375 -1506.5 3653
1453.625 -1511 3653
1552.2307 -1527 3653
1655.1818 -1532.7273 3653
-378.69232 -1423.9231 3653
149 -1419.6666 3653
478 -1456.8334 3653
543.36365 -1461.1818 3653
665.16669 -1450.9445 3653
722.40002 -1437.2 3653
872.90912 -1455.7273 3653
953.27905 -1479.907 3653
1033.9048 -1470.1904 3653
1130.25 -1468 3653
1257.7646 -1470.4706 3653
-1121 -1305 3653
-1061.1111 -1322 3653
-971 -1314 3653
-703.25 -1386.75 3653
-642.72729 -1357.4546 3653
-549.2121 -1372.303 3653
-464.58621 -1343.5172 3653
-352.13889 -1354.0834 3653
-271.55554 -1367.2222 3653
3272.75 -1618 3672
3346.6001 -1623.2 3672
3425.8333 -1605 3672
3534.1333 -1651.4667 3672
1350.2307 -1504.4615 3672
1452.5 -1511.8334 3672
1542.4 -1522.3 3672
1652.2667 -1537.8667 3672
-705 -1411 3672
-443.78571 -1425.7858 3672
-395 -1428.5 3672
-225.25 -1447.75 3672
156 -1433 3672
460.33334 -1450.3334 3672
562.07141 -1463.3572 3672
653.77777 -1451.2222 3672
881.55554 -1450.8889 3672
950.0769 -1467.7693 3672
1044.4375 -1461.375 3672
1151.0834 -1468.5 3672
1263.697 -1450.2122 3672
1306.4546 -1471.9091 3672
-1114 -1316.5 3672
-980.66669 -1318 3672
-647.52002 -1350.04 3672
-542.65118 -1340 3672
-452.59259 -1366.9259 3672
-358.43588 -1355.8206 3672
-270.60001 -1365.6 3672
3284.3333 -1613.6666 3692
3356.1428 -1626 3692
3420.3333 -1608 3692
3572.2727 -1662.5454 3692
3605 -1614 3692
637.66669 -1501 3692
1348 -1505.5 3692
1458 -1514.8 3692
1561.8334 -1524 3692
1654.6364 -1535.5454 3692
-425.60001 -1430.05 3692
-220.33333 -1448.4166 3692
471 -1455.5 3692
545.11768 -1466.8235 3692
656 -1429.8462 3692
884.28571 -1441.7142 3692
960 -1463.3334 3692
1036.2667 -1454.2 3692
1196 -1475 3692
1248.7084 -1446.2084 3692
1319.6154 -1466.2307 3692
-1120 -1319.5 3692
-1040.8334 -1328 3692
-951.33331 -1310.6666 3692
-640.72223 -1354.9722 3692
-450.85001 -1380.35 3692
-264.5 -1370.25 3692
3293 -1605 3712
3340.125 -1632.375 3712
3427.6001 -1612.2 3712
3592.6001 -1667.8 3712
3618 -1651 3712
654 -1501 3712
1370.8572 -1506.7142 3712
1451 -1516.5 3712
1551.25 -1528 3712
1660.8334 -1532.5 3712
-658.63635 -1419 3712
-441.86667 -1416.2667 3712
-215.91667 -1431.5 3712
-158.88889 -1449.2222 3712
462.5 -1461.5 3712
551.1875 -1456.5 3712
666.42859 -1419.4286 3712
719.25 -1407 3712
891.25 -1437.5 3712
956.38464 -1463.0769 3712
1051.8948 -1452.4736 3712
1150.5454 -1474 3712
1247.5834 -1441.25 3712
1328.2858 -1450.2858 3712
-1130.6666 -1317.6666 3712
-1078.4 -1335 3712
-971.75 -1319.75 3712
-646.66669 -1361.1666 3712
-457.42856 -1392.1428 3712
-231.47368 -1369.3684 3712
-180.89999 -1363.8 3712
3355.7778 -1634.3334 3733
3424.8889 -1622.8889 3733
3636 -1666.6666 3733
1380.5 -1509 3733
1459.3334 -1521 3733
1555.6666 -1527 3733
1650.0909 -1540.9091 3733
3313.5 -1570.5 3733
-445 -1413 3733
-214 -1440.1111 3733
-183.77777 -1447.6666 3733
474 -1462.3334 3733
557.71429 -1446.4286 3733
649 -1417 3733
724.40002 -1409.2 3733
957.11108 -1457.1111 3733
1048.5385 -1447.1538 3733
1148.3636 -1473.1818 3733
1345.1818 -1454.0454 3733
-1119 -1334 3733
-1018.75 -1334 3733
-961.66669 -1316.3334 3733
-239 -1365.5834 3733
-162.55556 -1376.6666 3733
3358.8 -1625.3 3753
3440.4285 -1622.7142 3753
3648.3333 -1678.3334 3753
1383 -1508 3753
1440.5 -1521.5 3753
1549.3334 -1532 3753
1668.2667 -1541.7333 3753
-170.48148 -1438.2593 3753
463.5 -1468.5 3753
546.85712 -1459.2858 3753
654.625 -1416.625 3753
730 -1408 3753
965.5517 -1440.0344 3753
1034.1666 -1428.2 3753
1165.5264 -1440.579 3753
-1134.3334 -1326.3334 3753
-1072.5714 -1341 3753
-967 -1319 3753
-162.66667 -1364.6666 3753
3378.6001 -1628.4 3774
3456.75 -1625.25 3774
3705.6667 -1626 3774
1433.8334 -1522.8334 3774
1545.6666 -1534 3774
1663.3334 -1543.0834 3774
450.39999 -1426.4 3774
563.71429 -1448.4286 3774
647.36365 -1416.9091 3774
722.5 -1410.625 3774
949.71429 -1438.4762 3774
1069.2273 -1429.0454 3774
1148.0536 -1440.7678 3774
1217.6 -1450.7333 3774
-1132 -1340 3774
-1025.5 -1340 3774
-954.66669 -1313 3774
3394 -1614 3795
3434.762 -1633.7142 3795
3725.25 -1629.75 3795
1442.5555 -1524 3795
1581.5 -1534 3795
1665.4166 -1540 3795
3501 -1583.25 3795
476.39999 -1468.6 3795
555.125 -1458.5 3795
656.5 -1409.375 3795
710.42859 -1409.2858 3795
956.34998 -1433 3795
1148.2941 -1442.4412 3795
1212 -1463 3795
1433.0834 -1460.8334 3795
1550.375 -1460.75 3795
1655.0769 -1478.9231 3795
-1134.625 -1335.875 3795
-1068.5 -1347 3795
-978 -1326.3334 3795
3455 -1623.5 3816
3502 -1609.5 3816
3739.5 -1654.5 3816
1437.2 -1523.2 3816
1541 -1543 3816
1662.9091 -1538.9091 3816
3502 -1587 3816
466 -1457.5 3816
563.5 -1459 3816
643.25 -1417 3816
948.91998 -1434.64 3816
1443.5555 -1477 3816
1560.6364 -1475.9091 3816
1642.1 -1489.9 3816
-1134.1111 -1326 3816
-1045.1 -1345.1 3816
-959 -1319 3816
-1113 -1292 3816
3477.3501 -1618.95 3837
3503 -1614 3837
3773 -1639.5 3837
1460.5 -1530 3837
1588.8572 -1526.5714 3837
1651.2128 -1529.3617 3837
3503 -1587 3837
469 -1452 3837
560.79999 -1461 3837
604 -1411.5 3837
1466.5 -1486.5 3837
1544.5 -1486.2 3837
1630 -1497 3837
-1135.25 -1322.25 3837
-1062.5 -1339.5 3837
-971 -1324.2 3837
3795 -1632 3859
3804 -1642 3859
1465.4286 -1527.8572 3859
1560.7273 -1531.7727 3859
1631 -1536.2727 3859
3481 -1581 3859
472 -1455.1428 3859
571 -1454.9 3859
608 -1406 3859
1481.5 -1497 3859
1522 -1497 3859
-1126.7273 -1340.9546 3859
-1058.0294 -1331.8235 3859
-970 -1325 3859
3793.5 -1609.5 3881
3814 -1669 3881
1486 -1530.3334 3881
1553.4584 -1533.1666 3881
476 -1430.4 3881
574.6875 -1433.4375 3881
-1044.7858 -1320.4286 3881
-970.79999 -1323 3881
3840.2 -1649.2 3903
1532.3182 -1545.0909 3903
488.57144 -1443 3903
558.5 -1435.8125 3903
-1031.3636 -1318 3903
-960 -1321.5 3903
495 -1385.3334 3903
3867.1667 -1660.8334 3926
492.60001 -1448.8 3926
542.5 -1441.1111 3926
-1019.75 -1318.875 3926
-970.79999 -1323.6 3926
526 -1394 3926
3873.3333 -1642.3334 3948
3910 -1679 3948
532.59998 -1464.1 3948
