ply
format ascii 1.0
comment PCL generated
element vertex 2139
property float x
property float y
property float z
element camera 0
property float view_px
property float view_py
property float view_pz
property float x_axisx
property float x_axisy
property float x_axisz
property float y_axisx
property float y_axisy
property float y_axisz
property float z_axisx
property float z_axisy
property float z_axisz
property float focal
property float scalex
property float scaley
property float centerx
property float centery
property int viewportx
property int viewporty
property float k1
property float k2
end_header
1247.0769 -1524.8462 2754
1344 -1525.4546 2754
1453 -1542.6666 2754
1547.4546 -1533.6364 2754
1650.7368 -1550.6842 2754
1729.4445 -1564.1111 2754
1968.9375 -1557.625 2754
2008.8889 -1560.6666 2754
2192.6001 -1569.6 2754
2217.125 -1570.5 2754
2318.9473 -1540.1052 2754
-827.22223 -1425.3334 2754
-753.40002 -1428.4 2754
-661.75 -1412.625 2754
-531.28571 -1413 2754
-473.5 -1434 2754
-359.57144 -1428.7142 2754
-89 -1417 2754
157.16667 -1457.9166 2754
246.8125 -1467.875 2754
348.625 -1487.875 2754
559.5 -1491 2754
645.5 -1483.75 2754
775.66669 -1477.3334 2754
857.40002 -1485.6 2754
928.14288 -1491.4286 2754
458 -1507 2765
1048.4 -1521.1 2765
1139 -1531.6 2765
1239.7693 -1526 2765
1364.7142 -1530.8572 2765
1446.0909 -1545.3636 2765
1525.3334 -1537 2765
1657.5834 -1549.5 2765
1739.6111 -1564.5555 2765
1961.2142 -1560.9286 2765
2025.4706 -1556.5294 2765
2181.7778 -1573.8889 2765
2226.5 -1567.0555 2765
2318.6667 -1548.2778 2765
-825.09088 -1427 2765
-755.82355 -1427.7646 2765
-650.5 -1413 2765
-550.09088 -1412.8182 2765
-442.5 -1439.3334 2765
-364.20001 -1435.8 2765
-76 -1416 2765
160.45454 -1455.4546 2765
244 -1466.6842 2765
345.83334 -1487.75 2765
409.33334 -1500 2765
551.90912 -1493.7273 2765
642.76923 -1485.1538 2765
747.23077 -1476.1538 2765
856.76923 -1487 2765
952.77777 -1496.5555 2765
455.39999 -1507 2777
502 -1507 2777
997 -1507 2777
1050.25 -1522.5 2777
1174.1428 -1532 2777
1251.7333 -1526 2777
1346.7 -1530.2 2777
1447.1818 -1545.4546 2777
1553.3077 -1540.4615 2777
1654.0834 -1549.0834 2777
1762.1364 -1566.8636 2777
1813.8572 -1581.5714 2777
1961.1 -1564.5 2777
2035.7307 -1554.9615 2777
2181.4546 -1574 2777
2250.1667 -1571.1111 2777
2316.7896 -1555 2777
-823 -1425 2777
-777.3125 -1427.5 2777
-653.5 -1416 2777
-530.20001 -1417.2 2777
-480.66666 -1436.5 2777
-360.57144 -1433.4286 2777
-84.75 -1417.25 2777
156.7 -1456 2777
248.5 -1466.125 2777
346.39999 -1488.5 2777
551 -1495.8 2777
667.14288 -1484.4286 2777
765 -1481 2777
839 -1487 2777
951.77777 -1498 2777
443.16666 -1510.0834 2788
514 -1506 2788
995 -1506 2788
1040.6364 -1520 2788
1146 -1537.3636 2788
1250 -1526 2788
1348.875 -1531.875 2788
1452 -1549.4286 2788
1558.3334 -1540.5555 2788
1661.5 -1550.2 2788
1767.9091 -1565.9091 2788
1830.2693 -1577.1923 2788
1951.8 -1573.0667 2788
2054.7 -1556.15 2788
2177.3333 -1576.5834 2788
2269 -1573.8334 2788
2317.5 -1557 2788
-815.09088 -1420.6364 2788
-758.40002 -1424.2667 2788
-652.79999 -1418 2788
-560.40002 -1417.5 2788
-447.38461 -1443.6154 2788
-364.83334 -1435.3334 2788
-106.5 -1414.5 2788
-74 -1411.5 2788
164.7 -1466.6 2788
238 -1465.8 2788
338.21429 -1485.8572 2788
571.375 -1493.875 2788
640.33331 -1489.4 2788
746.40002 -1482.1 2788
875.79999 -1493 2788
936 -1496.8182 2788
395 -1506 2799
432.375 -1509 2799
516.59998 -1508.4 2799
989 -1506 2799
1059.7273 -1526 2799
1149.9091 -1538.3636 2799
1246.75 -1525.5834 2799
1353.375 -1533.75 2799
1458.5834 -1550.8334 2799
1529.8334 -1547.3334 2799
1636.6666 -1548.1111 2799
1751.6154 -1562.3077 2799
1859.6061 -1579.6666 2799
1941.1305 -1580.3478 2799
2069.9644 -1561.1428 2799
2164.0715 -1581.7142 2799
2259.1177 -1569.0588 2799
2321 -1548.3889 2799
2704.8 -1551.6 2799
-815.33331 -1412.6666 2799
-762.81818 -1424.4546 2799
-645.5 -1420 2799
-532.25 -1421.75 2799
-468.71429 -1441 2799
-365.10001 -1437.4 2799
-90.333336 -1427 2799
167.39999 -1466.4 2799
251.53847 -1466.5385 2799
351.20001 -1489.9333 2799
573.5 -1494.5 2799
652.88892 -1489.1111 2799
753 -1486 2799
851 -1493 2799
926.5 -1496 2799
-815.79999 -1377.2 2799
2098 -1605 2811
2131 -1605 2811
447.81818 -1514.1818 2811
521.5 -1509 2811
970.33331 -1506 2811
1051.6364 -1523.5454 2811
1153 -1540 2811
1246.8235 -1527.0588 2811
1347.4 -1535.4 2811
1425 -1550.25 2811
1556.6364 -1547.5454 2811
1658 -1553.5714 2811
1749.9231 -1562.3077 2811
1857.7858 -1568.0358 2811
1932.9259 -1578.6296 2811
2045.2142 -1548.4286 2811
2138.1226 -1577.3877 2811
2247.0833 -1568.5 2811
2323.8823 -1547.2354 2811
2718.875 -1552.625 2811
-809.71429 -1413.2858 2811
-753.375 -1424.0625 2811
-650.90002 -1423.6 2811
-544 -1424 2811
-453.58334 -1448 2811
-365.5 -1437.25 2811
-107.5 -1419.5 2811
-74.5 -1416.5 2811
165.52942 -1452.5883 2811
245.06667 -1466.4667 2811
354.10526 -1489.579 2811
403 -1499 2811
571.125 -1494.625 2811
642.21429 -1490.7142 2811
752.33331 -1489 2811
805 -1492 2811
930.66669 -1499 2811
2140.2 -1608 2823
452.20001 -1514.8 2823
527.16669 -1508.5 2823
968.79999 -1507.8 2823
1047.0769 -1522.3077 2823
1151.7333 -1541.7333 2823
1241.7693 -1526.6154 2823
1355 -1538 2823
1463.8 -1556.8 2823
1532.375 -1553.5 2823
1656.5 -1555 2823
1742.8 -1563.6 2823
1858.625 -1562.8125 2823
1946.2222 -1572.3334 2823
2049 -1548.6154 2823
2149.606 -1570.0909 2823
2267.2 -1567.45 2823
2323.24 -1546.24 2823
2726.8 -1546.4 2823
-809 -1408.3334 2823
-765.25 -1423.75 2823
-644.25 -1426 2823
-555 -1427.1666 2823
-450.08334 -1448.8334 2823
-362.77777 -1437 2823
-91.5 -1433 2823
163 -1461.3636 2823
299 -1472 2823
353.625 -1486.8125 2823
405 -1499 2823
570.90002 -1494.1 2823
643 -1492 2823
735.83331 -1492 2823
855.0769 -1499 2823
914.59998 -1499 2823
-811.5 -1387.75 2823
451.33334 -1513.1333 2834
525.85712 -1509.4286 2834
969.625 -1508.75 2834
1052.8334 -1522.9166 2834
1151 -1542.8462 2834
1251.2307 -1527.3077 2834
1346.2727 -1538 2834
1454.9 -1556.6 2834
1526 -1556.6 2834
1666.25 -1558 2834
1754.1 -1566.8 2834
1837.8572 -1566 2834
1945.3636 -1571.3182 2834
2050.1428 -1548.5714 2834
2157.9285 -1559.1428 2834
2248.2666 -1567.8667 2834
2319.5386 -1544.0385 2834
-805.33331 -1407.3334 2834
-758.29413 -1423.9412 2834
-650.25 -1428 2834
-551.79999 -1428.6 2834
-446.75 -1450.6666 2834
-370.25 -1438.125 2834
-108.5 -1424.5 2834
-80.666664 -1427 2834
167.81818 -1458 2834
243.21428 -1471 2834
367.60001 -1487.35 2834
411 -1496.25 2834
572.33331 -1492.5555 2834
652.20001 -1491 2834
753.625 -1495.375 2834
878.28571 -1498 2834
911.66669 -1498 2834
459.66666 -1513.8334 2846
522.125 -1510.125 2846
828.66669 -1504 2846
960.5 -1508.375 2846
1056.2727 -1523.2727 2846
1151.5 -1542.7142 2846
1250.6364 -1528.4546 2846
1344.1 -1538.4 2846
1443 -1557.75 2846
1561.3 -1558 2846
1640 -1559.2 2846
1756.8889 -1568.6666 2846
1851.8462 -1566.6923 2846
1951.0667 -1570.0667 2846
2024.875 -1556.875 2846
2152.6667 -1557.1666 2846
2248.5454 -1568.5454 2846
2328.8572 -1530.4286 2846
2752 -1551.6666 2846
-807 -1404 2846
-763.73682 -1420.8422 2846
-629.5 -1427.5 2846
-552.09998 -1432.4 2846
-447.33334 -1451.0667 2846
-376.22223 -1442.7778 2846
-108.5 -1424.5 2846
-92 -1438 2846
169.18182 -1454.5454 2846
228.57143 -1472 2846
342.81818 -1481.9091 2846
411.25 -1494.5 2846
574.23077 -1489.9231 2846
645.4375 -1490.5625 2846
727.16669 -1495.6666 2846
465.53333 -1513.2667 2858
521.875 -1509.875 2858
768.25 -1504 2858
879 -1504 2858
934.71429 -1507 2858
1052.3334 -1521.6111 2858
1149.6428 -1543 2858
1241.7273 -1532.6364 2858
1353.2858 -1541 2858
1450.75 -1559.25 2858
1551 -1560.7273 2858
1680.5 -1564 2858
1754.25 -1571 2858
1869.3334 -1566.3334 2858
1951.25 -1568.375 2858
2047.8572 -1555.7858 2858
2148.0769 -1555.7693 2858
2251.6667 -1571.7778 2858
2332.2104 -1532.8422 2858
2762.5386 -1542.6154 2858
-803 -1403 2858
-759.09088 -1419.0909 2858
-654.58331 -1433.5 2858
-560.85712 -1433 2858
-448.91666 -1449.6666 2858
-367.33334 -1437.1111 2858
-85.5 -1432 2858
170.45454 -1454.5454 2858
251.23077 -1474.8462 2858
355.88889 -1483.2222 2858
415.5 -1492.375 2858
556 -1493 2858
651 -1491 2858
721.5 -1497 2858
2795 -1605 2870
467 -1510.9091 2870
520.875 -1508.625 2870
761.40002 -1506.4 2870
848.07141 -1507.8572 2870
947.46155 -1509.8462 2870
1055 -1519.7646 2870
1145.8125 -1541.8125 2870
1248.6666 -1531.5555 2870
1343.6666 -1541.6666 2870
1441.625 -1559 2870
1542.7142 -1564 2870
1643.7273 -1564 2870
1744.875 -1572.75 2870
1840.4 -1574.5 2870
1943.6923 -1567.2307 2870
2046.9375 -1557.5 2870
2150.0908 -1555.3636 2870
2247 -1574.5 2870
2336.1667 -1534.9166 2870
2806.6667 -1577.6666 2870
-754.09088 -1415.7273 2870
-631.625 -1430.75 2870
-549.45453 -1436.6364 2870
-444.44446 -1453.3334 2870
-366 -1435.2858 2870
-109.5 -1429.5 2870
-82.5 -1439.5 2870
171.66667 -1447.9166 2870
228.33333 -1474.6666 2870
367.5 -1483 2870
424.85715 -1492 2870
572.30768 -1488.3846 2870
613.5 -1488.25 2870
707.66669 -1497 2870
-779.71429 -1373.2142 2870
476.27274 -1510.6364 2882
515.42859 -1509 2882
747.83331 -1506.5 2882
869.5 -1506.5 2882
943.73334 -1508.6 2882
1061.1111 -1515.3334 2882
1138.9333 -1538.8 2882
1243.8572 -1538 2882
1348.5555 -1543.6666 2882
1443.5 -1560.5 2882
1552.5834 -1566.3334 2882
1640.5 -1565.4 2882
1752.0714 -1574 2882
1847.8334 -1575 2882
1951.4 -1568.1333 2882
2048.75 -1557.875 2882
2147.8333 -1557 2882
2234.1428 -1570.5714 2882
2343.8823 -1534.1177 2882
2816 -1570.6666 2882
-737.25 -1419.75 2882
-652 -1435.3636 2882
-554.40002 -1437.1 2882
-452.07693 -1453.3077 2882
-371.42856 -1441 2882
-107 -1435 2882
-83.599998 -1430 2882
176.375 -1448.875 2882
258.79999 -1480.2 2882
340.375 -1483 2882
428.69232 -1489.6923 2882
565.53845 -1487.5385 2882
647.5625 -1492.0625 2882
707.5 -1496 2882
479.20001 -1506 2894
516.625 -1506 2894
758.85712 -1510.2858 2894
849.42859 -1510.7858 2894
945.58331 -1508.3334 2894
1058.2858 -1511.8572 2894
1142.1666 -1536.3889 2894
1253.6154 -1537.6154 2894
1361.3 -1546.5 2894
1452.5 -1562.9 2894
1548.8 -1567.2 2894
1657.4445 -1568 2894
1749.2142 -1573 2894
1861.125 -1575.25 2894
1958.7273 -1568.3636 2894
2031 -1564.3334 2894
2148.875 -1559.625 2894
2249.7856 -1575.7858 2894
2344.2942 -1539.7059 2894
2822 -1572.25 2894
-728.82355 -1422.6471 2894
-661.29999 -1438 2894
-549.44446 -1440.6666 2894
-445.875 -1454.125 2894
-367.44446 -1433 2894
-114 -1428 2894
-82 -1427.6666 2894
178.39999 -1448.3 2894
239.875 -1480.25 2894
370.625 -1488.125 2894
435.08334 -1487.8334 2894
569 -1483.2354 2894
647.11108 -1490.1666 2894
707 -1496 2894
913.5 -1496 2894
-774 -1373.6 2894
487 -1503.1666 2907
516.66669 -1503.1666 2907
750 -1509.875 2907
865.125 -1509.875 2907
953.46155 -1509.5385 2907
1053.9524 -1510.3334 2907
1140.0526 -1531.8422 2907
1249.4166 -1539.5 2907
1347.875 -1546.5 2907
1453.4546 -1564 2907
1566 -1566.8 2907
1639 -1568.9 2907
1760.5 -1574.5 2907
1849 -1582 2907
1935.25 -1571 2907
2057.1667 -1561.6666 2907
2151 -1561.0834 2907
2247.9231 -1573.3846 2907
2351.7727 -1537.8182 2907
2845 -1581 2907
-719.79999 -1424.6666 2907
-651.06665 -1436.3334 2907
-559.55554 -1441 2907
-450.84616 -1456.0769 2907
-375 -1442.4 2907
-111 -1434 2907
-85 -1441 2907
177.85715 -1444 2907
251.125 -1483.75 2907
345 -1489 2907
449.78571 -1489.5 2907
563.05884 -1481.5883 2907
639.625 -1485.0625 2907
713.5 -1496 2907
914.59998 -1496 2907
1079.3334 -1494.8334 2907
-772.0769 -1374.9231 2907
-346 -1396.5 2907
510.75 -1502 2919
759 -1512.25 2919
852.59998 -1513.7333 2919
966.33331 -1510.4445 2919
1032.6154 -1513.4615 2919
1145.7142 -1528.0476 2919
1231 -1545.3334 2919
1345.4445 -1548.4445 2919
1450.9375 -1561.75 2919
1544.8462 -1571.6154 2919
1650.4445 -1570.7778 2919
1752.5555 -1577 2919
1847.5 -1582.5 2919
1948.8889 -1572.3334 2919
2048.5715 -1565.8572 2919
2147.75 -1561.5 2919
2258.5557 -1575.4445 2919
2354.4443 -1537.2778 2919
2824.8333 -1557.6666 2919
-715.79999 -1421 2919
-658.15387 -1435.1538 2919
-548.25 -1446.125 2919
-440.66666 -1456.3334 2919
-375.28571 -1442 2919
-104.5 -1443.5 2919
-81 -1447 2919
178.57143 -1443.1428 2919
240.375 -1484.5 2919
387.5 -1488 2919
456.23529 -1487.1765 2919
554.29633 -1478.963 2919
648.41174 -1486.0588 2919
719.79999 -1495 2919
918.40002 -1495 2919
1080 -1491.5 2919
1106.5 -1495 2919
-771.90912 -1376 2919
767.59998 -1514 2932
848.84613 -1515.8462 2932
963.70001 -1509.4 2932
1032 -1513.0834 2932
1154.8334 -1528.4445 2932
1249.4615 -1546.2307 2932
1353.8 -1551.4 2932
1449.9333 -1560.1333 2932
1539.1428 -1573 2932
1659.2222 -1573.8889 2932
1748.0667 -1577 2932
1845.2 -1582.6 2932
1944.5714 -1577 2932
2057.5715 -1566.0714 2932
2144.3 -1563.2 2932
2247.6001 -1573.4 2932
2351.9473 -1547.579 2932
2833.8 -1552.4 2932
-716.625 -1416.375 2932
-664.93335 -1435.3334 2932
-555.63635 -1446.6364 2932
-455 -1458.7273 2932
-378.16666 -1442.3334 2932
-115 -1433 2932
-83.333336 -1439.3334 2932
179.33333 -1443.1666 2932
246.66667 -1485.6666 2932
345.61539 -1493.9231 2932
462.04544 -1485.7727 2932
543.7027 -1475.5135 2932
650.6875 -1485.375 2932
723 -1495 2932
922.42859 -1495 2932
1076.6 -1488.7 2932
1111.5 -1491.5 2932
-777 -1373.5 2932
771.77777 -1513.4445 2944
874.5 -1510.625 2944
972.33331 -1507.2222 2944
1029.3 -1512.9 2944
1160.5 -1525.0714 2944
1226.625 -1549 2944
1361.375 -1553.375 2944
1457.625 -1555.4166 2944
1543.5294 -1571.6471 2944
1643.9091 -1573.1818 2944
1762.0909 -1577 2944
1835.75 -1583.4166 2944
1940.4546 -1578.2727 2944
2055.7144 -1567 2944
2145.2307 -1562.4615 2944
2256.8462 -1572.6923 2944
2348.1001 -1555.2 2944
2838.875 -1549.375 2944
-717.77777 -1411.7778 2944
-663.1875 -1433.3125 2944
-553.55554 -1448.8889 2944
-429.16666 -1458.1666 2944
-378.39999 -1443.2 2944
-105.5 -1449.5 2944
-81.199997 -1441.8 2944
180 -1442.25 2944
228.42857 -1484 2944
373.66666 -1494 2944
451.07693 -1482.6923 2944
541 -1467.9091 2944
653.58331 -1480.875 2944
729.875 -1490.9375 2944
930.90002 -1492.6 2944
1073.2307 -1485.9231 2944
1118.125 -1487 2944
281.5 -1501 2957
333.66666 -1501 2957
779 -1513.4286 2957
854.4375 -1517.8125 2957
966.33331 -1505.5 2957
1024.7 -1513.6 2957
1172.4166 -1528.75 2957
1249.4667 -1549 2957
1354.8182 -1554.0909 2957
1477.6316 -1547.8948 2957
1533.4773 -1558.2273 2957
1632.75 -1572.625 2957
1765.1923 -1573.2307 2957
1835.4 -1576.4399 2957
1942.4062 -1530.4688 2957
2055.5881 -1569.1765 2957
2146.7896 -1560.421 2957
2249.3684 -1570 2957
2341.2327 -1559.3024 2957
2850 -1553.6666 2957
-724.375 -1407.375 2957
-660.33331 -1431.3889 2957
-548.375 -1452.875 2957
-452.69232 -1462.2307 2957
-378.25 -1443.25 2957
-116 -1438 2957
-82 -1452 2957
176.8 -1439.4 2957
221.5 -1482.3334 2957
389 -1494 2957
451.53845 -1483.2307 2957
541.73682 -1465.2632 2957
656.33331 -1480 2957
737.47369 -1485.8948 2957
928.33331 -1491.0834 2957
1076 -1484 2957
1119.5 -1485.25 2957
789.16669 -1514 2970
839.15387 -1522.6154 2970
991.75 -1508.75 2970
1021 -1511.5 2970
1178 -1524.5 2970
1248 -1549 2970
1349.5 -1556 2970
1452.9166 -1553.0834 2970
1552.2581 -1550.3549 2970
1648.8182 -1576.3636 2970
1755.5264 -1573.6842 2970
1847.72 -1572.24 2970
1954.8 -1539.025 2970
2050.8 -1553.2 2970
2150.7693 -1558.1538 2970
2243.1428 -1566.6666 2970
2342.8484 -1551.7576 2970
-733.5 -1407.375 2970
-659.11108 -1429.8889 2970
-556.63635 -1452.9091 2970
-430.875 -1457.125 2970
-376.75 -1441.375 2970
-106.5 -1454.5 2970
-82 -1444.25 2970
182 -1444.2 2970
231.57143 -1488 2970
368.25 -1498.25 2970
462 -1482.1111 2970
538.23529 -1462.1177 2970
654.23077 -1477.9231 2970
749.76923 -1485.4615 2970
893 -1500 2970
948.14288 -1493.5 2970
1061.0769 -1490.3077 2970
1131.375 -1489.5 2970
2001 -1500 2970
2912 -1605 2983
281 -1507 2983
319.5 -1507 2983
796.66669 -1509.3334 2983
839.80768 -1519.6538 2983
1015 -1507 2983
1186 -1522 2983
1230.5 -1549 2983
1342.7273 -1557.9091 2983
1447.5 -1556.5 2983
1556.7222 -1545.1111 2983
1650.0909 -1577 2983
1760.5 -1570.3182 2983
1849.5217 -1565.4348 2983
1948.975 -1557.05 2983
2046.5128 -1555.8206 2983
2139.926 -1550.8148 2983
2246.2222 -1561.1852 2983
2338.2334 -1532.4333 2983
-736 -1408 2983
-644.94739 -1431.4736 2983
-562.5 -1452 2983
-443.8125 -1461.5 2983
-379.5 -1437 2983
-117 -1444 2983
-75 -1439.3334 2983
177.75 -1438.75 2983
235.5 -1493 2983
377 -1498 2983
438.88889 -1489.1111 2983
555.75 -1460.3334 2983
651.5 -1477 2983
750.29169 -1484.8334 2983
851 -1500 2983
952.36841 -1491.8948 2983
1058.1052 -1488.2106 2983
1136.625 -1490.375 2983
2918 -1605 2996
268 -1506 2996
334.5 -1506 2996
851.93335 -1513.4667 2996
1020 -1506 2996
1185.5 -1514.75 2996
1253.1666 -1547.125 2996
1336 -1558.3334 2996
1470.6364 -1553 2996
1556.9615 -1537.6154 2996
1648.375 -1575.6875 2996
1752.5555 -1572.5555 2996
1868.3939 -1561.4546 2996
1939.5454 -1563.7013 2996
2051.7544 -1546.3596 2996
2152.8555 -1530.8445 2996
2231.6599 -1537.38 2996
2343.7546 -1535.2452 2996
2907.5 -1594.5 2996
-741.25 -1408.875 2996
-642.375 -1429.875 2996
-550.5 -1455.5 2996
-434.67569 -1445.6487 2996
-383.60001 -1427.6 2996
-111 -1454.6666 2996
-84.75 -1450 2996
170.39999 -1429 2996
219.8 -1485 2996
369.5 -1499 2996
453 -1487.5 2996
536.04999 -1461.2 2996
657.625 -1478 2996
757.5 -1479.5 2996
834.66669 -1496.6666 2996
950.05261 -1489.7894 2996
1046.6875 -1488.9375 2996
1136.4 -1489.2 2996
272.5 -1509.5 3009
328.75 -1507.75 3009
851.29413 -1512.5883 3009
1185.6 -1511.6 3009
1242 -1538.6666 3009
1345.75 -1560.25 3009
1442.5555 -1563.5555 3009
1555.2 -1536.8 3009
1635.8 -1569 3009
1757.381 -1566.3334 3009
1845.5385 -1550.1538 3009
1909.3334 -1548 3009
2062 -1566.6666 3009
2267.8076 -1533.3269 3009
2344.5 -1535.8422 3009
2401 -1530.5 3009
2910 -1583 3009
-741.16669 -1411.6666 3009
-649.16669 -1428 3009
-560.28571 -1451.5 3009
-442.23999 -1439.2 3009
-381.16666 -1419.8334 3009
-114.5 -1433.8334 3009
-87.666664 -1458.3334 3009
182.60001 -1443.4 3009
222.83333 -1487.1666 3009
378.5 -1499 3009
461 -1487.8 3009
548.40002 -1459.5 3009
647.66669 -1476.2 3009
749 -1481 3009
833.75 -1497.25 3009
959.28571 -1488 3009
1037.9697 -1484.4849 3009
1137.3 -1490.6 3009
275 -1510 3022
328.44446 -1506.5555 3022
862.9231 -1508.2307 3022
1192 -1509.6666 3022
1258.2174 -1538.7391 3022
1346.0625 -1560.25 3022
1454.8125 -1562.4375 3022
1545.125 -1536.625 3022
1654.5 -1571.45 3022
1749.3334 -1565.5 3022
1845.1111 -1548.3889 3022
1911.8182 -1533 3022
2287.5 -1530.5 3022
2915 -1570.4 3022
-746.14288 -1413 3022
-648.71429 -1428 3022
-543.5625 -1458.3125 3022
-458.3913 -1446.9565 3022
-379.5 -1420 3022
-116.66666 -1443.6666 3022
-78.25 -1439.75 3022
187.33333 -1453.3334 3022
220.2 -1484 3022
369.22223 -1498 3022
453.46667 -1491 3022
543.65002 -1457.55 3022
659.875 -1478.75 3022
747 -1477 3022
833.28571 -1494 3022
923.88892 -1491.7778 3022
1044.45 -1475.95 3022
1135.2 -1488.9 3022
-360 -1392 3022
2957 -1619 3036
272.5 -1510.8334 3036
318.20001 -1507.8 3036
860 -1506.9091 3036
1190 -1507.3334 3036
1250.9286 -1531.6428 3036
1338.3077 -1555.5385 3036
1469.75 -1563.75 3036
1547.9 -1536.1 3036
1635.3334 -1563.1666 3036
1754.0667 -1560.1333 3036
1841.3 -1547.3 3036
1914.6666 -1533.6666 3036
2900 -1541 3036
-741.5 -1415.4 3036
-637.8125 -1429.1875 3036
-547.40002 -1455 3036
-466.23529 -1446.7646 3036
-383 -1420 3036
-108.5 -1462 3036
-86.333336 -1462 3036
182.5 -1451.5 3036
221.39999 -1483.8 3036
367.39999 -1498 3036
445.10001 -1493.8 3036
538.77777 -1455.7778 3036
657.27271 -1479.3636 3036
755.55554 -1479.3334 3036
841.28571 -1495 3036
951.64288 -1490.5 3036
1047.7693 -1473.7693 3036
1134.8 -1489.6 3036
2955 -1605 3049
268.875 -1510.125 3049
314.28571 -1507 3049
866.28571 -1504 3049
1188 -1504 3049
1255.4348 -1528.3478 3049
1339 -1549.52 3049
1535.9231 -1540 3049
1659.3158 -1569.5264 3049
1739.5 -1567.35 3049
1850.0714 -1547.5 3049
1917.3636 -1532.1818 3049
2934 -1566.75 3049
-753.25 -1414.5 3049
-653.14288 -1426.5 3049
-555.53333 -1450.2667 3049
-456.38461 -1435.8462 3049
-111 -1446 3049
-84.199997 -1454.2 3049
184.33333 -1454 3049
208 -1472.5 3049
354.75 -1497 3049
471.88889 -1490 3049
541.5 -1458.1111 3049
651 -1478.5454 3049
743.07141 -1478 3049
839.14288 -1492.5 3049
966.5 -1491.75 3049
1046.2307 -1474.3846 3049
1133.1428 -1490 3049
2969 -1605 3063
266.44446 -1509.4445 3063
304.66666 -1506.3334 3063
421 -1504 3063
870 -1504 3063
1186.3334 -1504 3063
1242.125 -1522 3063
1337.421 -1540.5264 3063
1543.4445 -1543.1111 3063
1643.2858 -1560.5714 3063
1745.3529 -1564.2354 3063
1850.1666 -1547 3063
1920.7142 -1532.7142 3063
2936.75 -1559.75 3063
-741.11108 -1418.6666 3063
-640.38464 -1426.0769 3063
-548.35712 -1452.7858 3063
-456.28571 -1435.2858 3063
-379.39999 -1420.6 3063
-108.8 -1432.2 3063
-86.727272 -1450.6364 3063
182.66667 -1454 3063
216.25 -1482.5 3063
356.33334 -1497 3063
483.75 -1486 3063
545.78571 -1455 3063
641.79999 -1479.2 3063
751.57141 -1477 3063
849.91669 -1492.0834 3063
942.09088 -1497 3063
1046.375 -1476.875 3063
1133.4 -1491.2 3063
2990 -1621.6666 3077
274.89999 -1508.9 3077
307.5 -1504 3077
433.77777 -1504 3077
870.5 -1504 3077
1181 -1504 3077
1258.35 -1524.6 3077
1355.3182 -1544.4091 3077
1544.7333 -1543.7333 3077
1658.0714 -1564.5 3077
1740.6471 -1565.5294 3077
1841.8182 -1545.7273 3077
1921 -1534 3077
2935 -1558.6 3077
-742 -1419.3334 3077
-670 -1430 3077
-549.66669 -1453 3077
-457.42856 -1438.5714 3077
-396 -1424 3077
-108.75 -1413.5 3077
-88.777779 -1438.7778 3077
184.5 -1456.5 3077
217.2 -1482 3077
354.27274 -1496 3077
487.57144 -1483 3077
542.66669 -1454.3334 3077
653.69232 -1482.5385 3077
742 -1478.5 3077
846.85712 -1490.5 3077
950.16669 -1496 3077
1053 -1478.5 3077
1122 -1489 3077
268.18182 -1507.3636 3091
338.66666 -1503 3091
445 -1503 3091
878 -1503 3091
954.25 -1503 3091
1161 -1503 3091
1260.6666 -1519.5555 3091
1350.6 -1536.6 3091
1539 -1543.1111 3091
1652.1428 -1561.4286 3091
1753.0769 -1564.5385 3091
1845.1538 -1546.4615 3091
1924.9 -1534.5 3091
2962.3333 -1569.8334 3091
-762.875 -1418.375 3091
-654.75 -1431 3091
-555.54547 -1454.6364 3091
-455.5 -1440 3091
-383 -1431 3091
-107 -1405.5 3091
-84.785713 -1421 3091
186.66667 -1460 3091
218.2 -1481.6 3091
345 -1496 3091
483.79999 -1487.4 3091
546.23077 -1457.1538 3091
649.875 -1482.625 3091
748.75 -1479.9166 3091
853.81818 -1491.5454 3091
900 -1496 3091
1044.3334 -1482.3334 3091
1123 -1490.75 3091
-771 -1365.5 3091
3013.5 -1623 3105
268.25 -1506.5 3105
356.20001 -1503 3105
431.42856 -1508 3105
945.875 -1503 3105
1175 -1507.2 3105
1252.6154 -1515.9231 3105
1354.7333 -1534.5333 3105
1536.8572 -1541.7858 3105
1649.2727 -1560 3105
1750.4736 -1563 3105
1846.6364 -1547.1818 3105
1920.8572 -1543.4286 3105
2323 -1508.25 3105
2849.5 -1532 3105
2945.6001 -1555.4 3105
-744.40002 -1424.2 3105
-643.16669 -1431.1666 3105
-541.25 -1459.875 3105
-450.20001 -1438.8 3105
-370 -1415 3105
-88.454544 -1407.3636 3105
185 -1459 3105
222.75 -1484.75 3105
339.25 -1496 3105
486.75 -1484.75 3105
552.79999 -1457.6 3105
653.29999 -1484.5 3105
741.5 -1481.7 3105
847.63635 -1490.3636 3105
1044.8334 -1487.1666 3105
1121.2 -1489.8 3105
3028.3333 -1629.3334 3119
269.5 -1505.3334 3119
351.20001 -1502 3119
443.29999 -1508.4 3119
946.33331 -1506.4445 3119
1011 -1502 3119
1171.75 -1508 3119
1259.3636 -1517 3119
1346 -1529.5454 3119
1451.3636 -1559.9546 3119
1534.3334 -1542.1111 3119
1649.6666 -1558.3334 3119
1757.8422 -1559.8422 3119
1844.4667 -1551.2 3119
1929.8 -1545.8667 3119
2330.5 -1508.6666 3119
2858.6667 -1534 3119
2947.8333 -1556 3119
3005 -1586.5 3119
-740.11108 -1426.5555 3119
-647.875 -1430.75 3119
-552.875 -1460.375 3119
-445.75 -1441.625 3119
-386.33334 -1436 3119
-94 -1407 3119
183.66667 -1458.3334 3119
223.83333 -1484 3119
488 -1481.8 3119
544.18182 -1455.6364 3119
652 -1484.3846 3119
748.64288 -1481.7142 3119
849.625 -1491.5 3119
1060.7142 -1485.4286 3119
1122.6666 -1490.3334 3119
-767 -1370.8 3119
3037 -1619 3133
271.75 -1502.875 3133
335 -1502 3133
440.36365 -1507.7273 3133
893.5 -1502 3133
928.40002 -1506.2 3133
1010 -1506.6666 3133
1169.5 -1509 3133
1250.3077 -1516 3133
1352.7693 -1529.9231 3133
1454.05 -1557 3133
1548.1428 -1543.1428 3133
1656.2222 -1559.7778 3133
1749.375 -1560.25 3133
1846.875 -1546.6875 3133
1929.2727 -1536.6364 3133
2334.6667 -1507.8334 3133
2957.75 -1558.75 3133
-755.70001 -1424.5 3133
-647.77777 -1436.6666 3133
-556.28571 -1461.7142 3133
-470.75 -1448.5 3133
182.5 -1438.25 3133
228.33333 -1485.6666 3133
482.79999 -1485.4 3133
551.27271 -1458.2727 3133
655.5 -1484 3133
741.25 -1481.1666 3133
846.77777 -1490.8889 3133
1057 -1489.3334 3133
1115.6666 -1489.3334 3133
274 -1501 3148
349.33334 -1504.5555 3148
441.71429 -1507.8572 3148
894 -1501 3148
954.20001 -1511.6 3148
1032.3334 -1503.6666 3148
1175 -1511.6 3148
1257.9 -1516 3148
1341.9166 -1526.0834 3148
1453.3334 -1553.2222 3148
1545.375 -1542.5 3148
1651.2222 -1557.3334 3148
1756.7727 -1552.7273 3148
1840.8695 -1542.5217 3148
1928.9445 -1548.3334 3148
2332.0908 -1505.3636 3148
2961 -1562.5 3148
3025.5 -1586.5 3148
-746.41669 -1427.6666 3148
-653 -1436.0769 3148
-548.90002 -1466.9 3148
-438.33334 -1444.5555 3148
-384.5 -1434.75 3148
181.75 -1442.25 3148
225.91667 -1481.1666 3148
480.75 -1488.5 3148
543.11108 -1462.2222 3148
650.61536 -1483.3846 3148
742.15387 -1481.4615 3148
843.71429 -1492 3148
1077.6 -1488.4 3148
1118.3334 -1491.6666 3148
3068.75 -1634.5 3162
279 -1501 3162
349.375 -1506.25 3162
445.875 -1508.25 3162
891 -1501 3162
940 -1512.8 3162
1032 -1508.4 3162
1163.5 -1510.25 3162
1261.2 -1518.1 3162
1349.6364 -1527.1818 3162
1450.25 -1551 3162
1549.8 -1542.2 3162
1648.4546 -1556.2727 3162
1757.0909 -1553.0909 3162
1840.2413 -1536.3103 3162
1926.2632 -1535.5264 3162
2350.2222 -1505.7778 3162
2851.2 -1530.4 3162
2946.25 -1561.125 3162
3027.6667 -1582.3334 3162
-758.20001 -1423.7 3162
-634.42859 -1436 3162
-560.66669 -1465.2222 3162
-475.25 -1454.5 3162
-377 -1434 3162
190 -1464 3162
235.44444 -1483.2222 3162
488.79999 -1481.2 3162
554 -1458.4 3162
652.78949 -1480.2632 3162
744.84613 -1480.4615 3162
832.83331 -1491.8334 3162
1069 -1493 3162
1117.5 -1493 3162
299 -1508 3177
349.83334 -1510.3334 3177
427.71429 -1513 3177
951.55554 -1516.2222 3177
1020 -1517.25 3177
1173.3334 -1515.3334 3177
1244.2727 -1520.8182 3177
1350.6666 -1527.7778 3177
1457.2307 -1553.3846 3177
1551.8 -1542.7333 3177
1657.6 -1556.3334 3177
1758.1072 -1549 3177
1846.2858 -1528.6428 3177
1932.1052 -1526.3158 3177
2851.3999 -1530.2 3177
2960.3333 -1565.3334 3177
3034.75 -1584.25 3177
-742.78571 -1428.5 3177
-653.09088 -1439.4546 3177
-438.20001 -1450.3 3177
-390 -1448 3177
190.5 -1463 3177
245.27272 -1486.9091 3177
474 -1492 3177
543.66669 -1465.6666 3177
653.72223 -1478.2222 3177
748.38464 -1480.4615 3177
857.875 -1497.375 3177
1078.6 -1495.8 3177
1122.5 -1496.5 3177
3086.6667 -1620 3192
427.71429 -1514 3192
936.79999 -1515 3192
1036.25 -1516.75 3192
1179.6 -1517.8 3192
1270 -1522 3192
1354.375 -1527.75 3192
1448.4286 -1552.2858 3192
1553.9286 -1542 3192
1658.8182 -1549.5 3192
1741.2029 -1543.116 3192
1855.1666 -1528.5 3192
1921.5 -1523.3125 3192
2855.2856 -1530.8572 3192
2933 -1561.5 3192
3037.3999 -1583.8 3192
-739.71429 -1427.3572 3192
-651.5 -1440.1666 3192
-479.5 -1460.75 3192
-373 -1425 3192
188 -1463 3192
239.71428 -1483.0714 3192
475.39999 -1491.2 3192
550.63635 -1465.6364 3192
662.89471 -1473.7894 3192
738.29413 -1476.8823 3192
838.33331 -1497.6666 3192
1079 -1500 3192
1128 -1500 3192
-365 -1380 3192
3094 -1605 3207
437.20001 -1513.4 3207
885 -1507 3207
945.79999 -1518.5 3207
1038 -1520.1428 3207
1170.75 -1516.5 3207
1252.4546 -1527.0909 3207
1347.1666 -1527.0834 3207
1453.7273 -1555.8182 3207
1557.5 -1541.6 3207
1660.4091 -1540.3182 3207
1741.1224 -1518.2245 3207
1846.8 -1523.7333 3207
1918.2 -1522.2 3207
2847.6667 -1529.6666 3207
2958 -1566.2858 3207
3044.25 -1586 3207
-731.42859 -1428 3207
-667.20001 -1436.7333 3207
-445.125 -1456.875 3207
-389.66666 -1451.6666 3207
193.66667 -1464.3334 3207
247.33333 -1485.3334 3207
474.71429 -1492 3207
543.66669 -1466.8334 3207
644.9375 -1470.5 3207
749.20001 -1475.6666 3207
825.20001 -1496.8 3207
1095.5 -1500 3207
1114.3334 -1500 3207
3118 -1632.6666 3222
874 -1507 3222
940.09088 -1517 3222
1059.1666 -1518 3222
1161.1666 -1514.3334 3222
1248.0769 -1527.3846 3222
1345.8334 -1526.25 3222
1447 -1554.6 3222
1549.25 -1546.1666 3222
1660.0435 -1537.3914 3222
1704.3334 -1509.3334 3222
1846.375 -1519 3222
1921.1666 -1524.3334 3222
2846.3999 -1529.2 3222
2943.2 -1562.6 3222
3064.2 -1591.2 3222
-733.58331 -1425.1666 3222
-649.07141 -1439.2858 3222
-459.79999 -1462.6 3222
-376 -1431 3222
243.76923 -1482.6154 3222
475 -1491.25 3222
545 -1472.6 3222
655.40002 -1469 3222
749.0769 -1474.0769 3222
817.25 -1495 3222
1760.641 -1476.0513 3222
-369 -1386 3222
3131.3999 -1632.2 3237
870.375 -1506 3237
948.59998 -1519 3237
1046.6364 -1525.2727 3237
1135.25 -1509.875 3237
1238.8182 -1529 3237
1357.375 -1527.75 3237
1447.1111 -1555.8889 3237
1552 -1546.8462 3237
1662.4783 -1532.6957 3237
1702 -1506 3237
1860.1818 -1517.0909 3237
1920.6666 -1527 3237
2858 -1533.4 3237
2961 -1568.75 3237
3045.75 -1588.75 3237
3100 -1597 3237
-733.44446 -1423.1111 3237
-649.75 -1437.25 3237
-456.25 -1466 3237
-393 -1460 3237
194.5 -1468 3237
249.7 -1484 3237
481 -1490.75 3237
555.88892 -1471.4445 3237
663.45453 -1470.1818 3237
749.69232 -1472.1538 3237
821 -1495.2 3237
1746.9565 -1475.6086 3237
-371 -1384 3237
859.5 -1506 3253
958.59998 -1521.6 3253
1049.25 -1527.5 3253
1149 -1513.4546 3253
1290.6666 -1529 3253
1353.75 -1530.75 3253
1454.8 -1557.8 3253
1552.4 -1550.1 3253
1657.8572 -1531.5238 3253
1703 -1506 3253
1883.1538 -1514.5385 3253
1916.6154 -1526.3077 3253
2844.8 -1528.6 3253
2953.5 -1564.3334 3253
3046.2856 -1589.7142 3253
-727.375 -1425.375 3253
-647.81818 -1437.5454 3253
-447.11111 -1468.7778 3253
-388 -1460 3253
195 -1468 3253
245.88889 -1482.8889 3253
480.33334 -1492 3253
527.28571 -1478.4286 3253
647.20001 -1472.2 3253
746.40002 -1472.4 3253
819.25 -1492.625 3253
1695 -1498 3253
1745.95 -1475.75 3253
3148 -1621 3268
876.59998 -1509.8 3268
953.35712 -1519.4286 3268
1059.8 -1528 3268
1150.3636 -1514.0909 3268
1254.5 -1534.6666 3268
1348.4166 -1530 3268
1455.4 -1557 3268
1547.5454 -1554.3636 3268
1653.8235 -1531.2941 3268
1924.6923 -1518 3268
2850.6667 -1530.6666 3268
2953 -1563.8334 3268
3053 -1593 3268
-735.5 -1421.3 3268
-646.81818 -1438.7273 3268
-446.10001 -1469.1 3268
-389.5 -1455.5 3268
192 -1467 3268
251.66667 -1484.5 3268
481 -1492.3334 3268
514.33331 -1482 3268
637 -1474 3268
752 -1471.6428 3268
828.5 -1493.5 3268
-374 -1390 3268
3098 -1605 3284
3169.0833 -1627 3284
875.33331 -1509.6666 3284
952.10529 -1514.7368 3284
1042.0769 -1535 3284
1145.6666 -1512.3334 3284
1257.2858 -1534.2858 3284
1349.1538 -1529.8462 3284
1456.4 -1557 3284
1549.5385 -1556.1538 3284
1658 -1530.8572 3284
1704 -1505 3284
2836.5 -1524 3284
2949 -1561.8 3284
3044.4285 -1592.8572 3284
-740.83331 -1420.1666 3284
-647.29999 -1439.9 3284
-395 -1466 3284
249.83333 -1483.6666 3284
482.25 -1493 3284
544.5 -1482.5 3284
664.42859 -1475.1428 3284
766.16669 -1475.3334 3284
823.59998 -1489.3 3284
1748 -1480.125 3284
3098 -1605 3300
3154.7 -1612.2 3300
879 -1508.5714 3300
954.66669 -1510.9333 3300
1041.05 -1533 3300
1136.6428 -1512 3300
1247.3846 -1533.3846 3300
1343.1818 -1529.2727 3300
1448.6154 -1553.2307 3300
1546.1666 -1559.1666 3300
1656.3125 -1532.8125 3300
1704 -1504 3300
2865.6667 -1535.3334 3300
2970.25 -1568.25 3300
3038 -1591.5 3300
-734 -1424.8572 3300
-656.625 -1440.5 3300
-389.5 -1458 3300
194 -1438.5 3300
246.10001 -1482.6 3300
483.79999 -1492.2 3300
562 -1481 3300
651.15387 -1477.3077 3300
745.45453 -1473.7273 3300
838.16669 -1491.6666 3300
1757.75 -1477.9166 3300
-378 -1396 3300
3090 -1605 3316
3133.2 -1611.4 3316
886.33331 -1506.6666 3316
952.66669 -1510.5834 3316
1049.8 -1524.88 3316
1149.4546 -1511.7273 3316
1245.7273 -1534.2727 3316
1385.6666 -1535 3316
1444.4546 -1549.9091 3316
1549.0769 -1560.1538 3316
1662.2307 -1531.3846 3316
1707.6666 -1506.6666 3316
2837 -1523.5 3316
2962.2 -1567.6 3316
3043 -1593 3316
-736.375 -1422.125 3316
-646.25 -1445.5 3316
-442.4375 -1467 3316
-395 -1457 3316
195 -1445.5 3316
256.72726 -1485.1818 3316
486.39999 -1489.6 3316
542.13336 -1481.6 3316
639.40002 -1478.6 3316
750.5 -1474 3316
831.09088 -1487.2727 3316
1744.7858 -1484.7858 3316
3085 -1605 3332
3163.5 -1617 3332
3230.625 -1636.375 3332
884 -1503 3332
952.76923 -1508.5385 3332
1049.6666 -1517.4 3332
1153.1 -1512.6 3332
1254.9166 -1534.3334 3332
1349.3334 -1535 3332
1456.6666 -1552.6666 3332
1663 -1529.9474 3332
1707.6666 -1505.6666 3332
2757 -1519 3332
2854.3333 -1527 3332
2952.5715 -1566 3332
3037 -1589 3332
-741 -1421.7142 3332
-655 -1446.75 3332
-445.17648 -1458.1765 3332
-393.57144 -1447.5714 3332
196 -1472 3332
250.16667 -1484.4166 3332
306 -1495 3332
485.29999 -1472 3332
512.06665 -1468.9333 3332
661.33331 -1480 3332
798 -1480 3332
840.90912 -1487 3332
1697 -1495 3332
1752 -1482.2354 3332
-734.59998 -1367.2 3332
3084 -1605 3348
3157.8889 -1616.1111 3348
888.33331 -1503 3348
951.27777 -1506.5 3348
1043.2 -1507.2 3348
1143.7858 -1509.1428 3348
1231 -1530.8 3348
1348.0834 -1534 3348
1451.7 -1551.4 3348
1563 -1559.5 3348
1658 -1532 3348
2720.75 -1518 3348
2876 -1534 3348
2953.3333 -1566.5 3348
3041 -1589 3348
-730.14288 -1427.5714 3348
-631.28571 -1453.7142 3348
-538.61768 -1455.6471 3348
-458.58334 -1446.9722 3348
-391 -1428 3348
197 -1457.5 3348
251.63637 -1480.8182 3348
326.60001 -1445.3 3348
476.72726 -1457.4091 3348
535.43475 -1465.1305 3348
647.33331 -1483.4445 3348
747 -1479 3348
846.36365 -1486.2727 3348
1694 -1495 3348
1753 -1483.5 3348
3092 -1605 3365
3153.7 -1616.2 3365
945.66669 -1504.1333 3365
1059.1177 -1503.8823 3365
1140.3334 -1507.3334 3365
1250.9166 -1538 3365
1354.8 -1534 3365
1444.7778 -1549.1111 3365
1653.3846 -1530.9231 3365
2760.375 -1525 3365
2843.3 -1528.4 3365
2934 -1559.75 3365
3041.7144 -1587.8572 3365
-726.875 -1434.125 3365
-646.5 -1452.6 3365
-552.38892 -1448.3334 3365
-450.05264 -1433.5264 3365
-390.33334 -1420.6666 3365
198 -1455 3365
253.14706 -1469.8235 3365
323.53659 -1452.9025 3365
468.11765 -1454 3365
542.29413 -1465.3529 3365
644 -1487 3365
754.66669 -1479 3365
851.11768 -1484.4706 3365
901 -1494 3365
1051 -1494 3365
1698 -1494 3365
1756.8948 -1482.3158 3365
-729.57141 -1363.5714 3365
-377 -1376 3365
206 -1400 3365
3095 -1605 3381
3151.8999 -1615.4 3381
3253.4443 -1629.6666 3381
952.16669 -1503.3334 3381
1038.6666 -1502 3381
1152.7778 -1508 3381
1251.2727 -1536.6364 3381
1349.3846 -1534.8462 3381
1446.4445 -1549 3381
1654.9445 -1527 3381
2722 -1525 3381
2881 -1533 3381
2945 -1562 3381
3053.6001 -1590.6 3381
-728 -1433 3381
-651 -1452 3381
-544.41174 -1441.7646 3381
-447.63159 -1428.3158 3381
-395 -1422 3381
244.08 -1455.28 3381
342.90909 -1447.4546 3381
452.38461 -1466.3077 3381
547.38464 -1463.2307 3381
656.55554 -1488.6666 3381
707 -1486 3381
858.70001 -1478.8 3381
909 -1494 3381
1056 -1494 3381
1698 -1494 3381
1755.4546 -1478.7273 3381
-724 -1356.1666 3381
3152.3999 -1614.6 3398
3250 -1629 3398
959.625 -1502 3398
1013 -1501 3398
1150.3334 -1507 3398
1236.7778 -1533 3398
1353.8182 -1535.1818 3398
1446.6666 -1548.1111 3398
1652.5 -1529 3398
2764.625 -1532 3398
2838 -1533 3398
2940.3333 -1555.2222 3398
3056.625 -1592 3398
-730.85712 -1426.7142 3398
-551.35712 -1439.8572 3398
-446 -1424 3398
-395 -1413 3398
254 -1455 3398
360.73914 -1451.2609 3398
449.46155 -1466.5385 3398
556.71429 -1467.2858 3398
644.11108 -1491.2222 3398
750 -1485 3398
857 -1473 3398
910 -1489 3398
1057 -1493 3398
1699 -1493 3398
-725 -1358 3398
3157.2 -1613.8 3415
3243 -1628 3415
958 -1505 3415
1010 -1501 3415
1151 -1506.3334 3415
1246.6923 -1533.6154 3415
1355 -1537.4445 3415
1452.6 -1549.8 3415
1656.3636 -1531.5454 3415
1700 -1501 3415
2741 -1525 3415
2878 -1541 3415
2955.3333 -1555.6666 3415
3046 -1591 3415
3102 -1597 3415
-725.59998 -1431.4 3415
-552.14288 -1438.7142 3415
-444.14285 -1420.4286 3415
-393.66666 -1407.6666 3415
256 -1450.5 3415
361.36365 -1447.5454 3415
424.25 -1454.25 3415
570 -1473 3415
646.66669 -1492.3334 3415
750 -1485 3415
853.63635 -1474.8182 3415
920.66669 -1489 3415
1063.5 -1491.6666 3415
3161.8 -1612.2 3432
3247 -1628.1111 3432
983 -1508 3432
1168.2858 -1508 3432
1246.5 -1529.5 3432
1340.625 -1542 3432
1449.4 -1547.3 3432
1646 -1542.5 3432
2753 -1534 3432
2835.4285 -1540 3432
2965.8 -1549.7 3432
3042.5386 -1586.5385 3432
3105 -1597 3432
-720.71429 -1433.5714 3432
-556.40002 -1437.6 3432
-462.89999 -1424 3432
264.18182 -1451.2727 3432
379.61539 -1467.3846 3432
417.21738 -1461.7391 3432
577.25 -1471.3334 3432
653.66669 -1491.3334 3432
749.69232 -1484 3432
850 -1472.8 3432
928.33331 -1484.6666 3432
1056.5 -1491.3334 3432
1116 -1498 3432
-724.33331 -1356.3334 3432
3166 -1609.4445 3450
3248.6365 -1626.8182 3450
984 -1508 3450
1009 -1508 3450
1170.5 -1508 3450
1251.5 -1525.7778 3450
1343.5555 -1544.4445 3450
1448.9 -1548.4 3450
1649.25 -1548.375 3450
1701 -1512 3450
2765.25 -1536 3450
2850.5 -1548 3450
2954.6667 -1548 3450
3047.5715 -1581.5714 3450
3105 -1597 3450
-717.22223 -1435 3450
-552.75 -1439 3450
-443.57144 -1420.1428 3450
-395 -1411 3450
258.71429 -1454.4286 3450
355.57144 -1429.2858 3450
432.55554 -1434.1111 3450
547.25 -1457.125 3450
643.85712 -1492 3450
749.5 -1484 3450
849.90002 -1473.9 3450
938.5 -1486.5 3450
1055.8889 -1492 3450
1145.375 -1498 3450
1207 -1500 3450
3167.8999 -1606.6 3467
3247.3635 -1623.9091 3467
985 -1507 3467
1009.3333 -1507 3467
1164 -1507 3467
1262.8636 -1518.3182 3467
1445 -1546.5454 3467
1660.4166 -1548.6666 3467
1703.6666 -1515.3334 3467
2770.2 -1531.8 3467
2848 -1548 3467
2986.3333 -1548 3467
3053.3333 -1575.8889 3467
-715 -1427.875 3467
-561.29999 -1442 3467
-455.39999 -1426 3467
-393 -1405.5 3467
253.875 -1453 3467
342.33334 -1434 3467
448.11111 -1440.2222 3467
558.79999 -1463.2 3467
647.5 -1495 3467
767.5 -1485 3467
847.59998 -1475.8 3467
939.88892 -1484.7778 3467
1061.6 -1487.8 3467
1151.1177 -1495.2354 3467
1229.7142 -1495.5714 3467
-723.5 -1356.8334 3467
3155 -1605 3485
3248 -1620.0834 3485
990 -1507 3485
1007 -1507 3485
1288.8334 -1515 3485
1331.5312 -1533.5625 3485
1448.1666 -1545.3334 3485
1710 -1513 3485
2785 -1533.5 3485
2851.625 -1556 3485
2944.7273 -1556 3485
3056.4443 -1571.4445 3485
3100 -1597 3485
-710 -1434.25 3485
-554.36365 -1441 3485
-449 -1425.8889 3485
247 -1441.5 3485
339.20001 -1439.6 3485
445.5 -1442.3 3485
552.625 -1463 3485
642.9231 -1494.5385 3485
740.79999 -1491 3485
861.5 -1474 3485
944.40002 -1484 3485
1067.9286 -1480 3485
1148.8334 -1486.5333 3485
1240.8235 -1491.2354 3485
1305 -1499 3485
-383 -1384 3485
3166.5715 -1609.5714 3503
3252.2856 -1616.9286 3503
995 -1506 3503
1012 -1506 3503
1353.1578 -1531.9474 3503
1710.2 -1516.2 3503
2796 -1518.75 3503
2850.9375 -1552.4375 3503
2964 -1556 3503
3049.1428 -1561.7142 3503
3104 -1593 3503
-713.33331 -1427 3503
-512 -1441 3503
-436.42856 -1424.1428 3503
257.33334 -1454.2222 3503
354.20001 -1440.8 3503
447 -1446.4286 3503
549.55554 -1464.2222 3503
651.28571 -1494.5714 3503
770.58331 -1457.1666 3503
840.14288 -1483.1428 3503
948.66669 -1486 3503
1062.6364 -1481.7273 3503
1147.1154 -1474.6154 3503
1245.9166 -1488.6666 3503
1312 -1498 3503
1718.0968 -1467.2258 3503
-725.55554 -1355 3503
3167.125 -1611 3521
3259.4707 -1612.3529 3521
661.66669 -1506 3521
992 -1506 3521
1012.75 -1506 3521
1362.4546 -1525.4546 3521
1707.5714 -1518.8572 3521
2848.1765 -1543.8235 3521
2935.6428 -1559.2858 3521
3055.4285 -1559.4286 3521
3115.6667 -1588.6666 3521
-710.59998 -1433.4 3521
-560.11108 -1448 3521
-443.14285 -1428.1428 3521
-395 -1415 3521
259.66666 -1450.8889 3521
351.28571 -1444.5714 3521
457.77777 -1450.8889 3521
561.42859 -1467.2858 3521
620.33331 -1489.3334 3521
756.53333 -1460.3334 3521
844.90912 -1483.1818 3521
946.75 -1483.9166 3521
1062.6666 -1480.6 3521
1143.1818 -1463.4546 3521
1252.5 -1488.6666 3521
1318.5 -1498 3521
1670.5834 -1461.5 3521
1706.2 -1491 3521
3173 -1610.7142 3539
3248.5454 -1607.9091 3539
673.28571 -1505 3539
1014 -1505 3539
1368.5 -1522 3539
1705.2858 -1531.5714 3539
2860.25 -1542.1666 3539
2946.75 -1557 3539
3058.6924 -1559.3077 3539
3125.5 -1584.25 3539
-715.79999 -1422.4 3539
-550.5 -1447 3539
-453 -1432.75 3539
265.14285 -1445 3539
355 -1450 3539
441 -1444.2 3539
558.5 -1470.6666 3539
618 -1488.6666 3539
773.7879 -1465.6364 3539
837.55554 -1485 3539
961.33331 -1488.6666 3539
1072 -1474.25 3539
1151.1333 -1459.4 3539
1252.625 -1487.625 3539
1321.2 -1497 3539
1665.75 -1472.125 3539
-724.55554 -1356.6666 3539
266 -1393 3539
3179 -1611 3558
3240 -1614 3558
3351.2307 -1629.6923 3558
648 -1505 3558
714.5 -1505 3558
994 -1505 3558
1019.4 -1505 3558
1376.4445 -1517.8889 3558
1704 -1542.5 3558
2869 -1536.5555 3558
2964.6365 -1563.6364 3558
3036.6667 -1566.6666 3558
3135.2856 -1579.1428 3558
-714 -1425.75 3558
-446.85715 -1432.5714 3558
-395 -1413.5 3558
272.77777 -1458.7778 3558
335.5 -1455 3558
462.28571 -1458.5714 3558
549.29999 -1466.1 3558
618.75 -1488.25 3558
765.82355 -1466.7646 3558
828.52631 -1467.6316 3558
948.33331 -1486.25 3558
1066.5 -1479.3334 3558
1158 -1463.4 3558
1257.2 -1489.2 3558
1328.2858 -1497 3558
-726.16669 -1345 3558
-382 -1380 3558
3185 -1609 3576
3256.6001 -1617.5 3576
3355.5 -1625.9 3576
748 -1504 3576
1020.25 -1504 3576
1381.25 -1512.5 3576
2874.8333 -1530.8334 3576
2951.8999 -1557.3 3576
3057 -1565.8572 3576
3129.1001 -1567.3 3576
-713.40002 -1423.8 3576
-453.20001 -1435.6 3576
276.25 -1444.1666 3576
336.33334 -1454 3576
450.625 -1451.75 3576
571.86664 -1428.2667 3576
613.33331 -1485 3576
755.20001 -1449.8 3576
827 -1465.5454 3576
970 -1492 3576
1069.8 -1479.2 3576
1149.5 -1459 3576
1237.8572 -1485.1428 3576
1347.5 -1496 3576
-724 -1353.25 3576
3198 -1605 3595
3247 -1619.3334 3595
3356 -1624.2858 3595
996 -1504 3595
1025.6666 -1504 3595
1342.125 -1505 3595
2883 -1526.3334 3595
2956.6001 -1555 3595
3051.9231 -1558.8462 3595
3135.5 -1543.8334 3595
-715 -1419.6666 3595
-450 -1437.0909 3595
286 -1454.1 3595
361.90909 -1441.8182 3595
477.33334 -1464.6666 3595
565.92859 -1448.1428 3595
611.85712 -1449.5714 3595
753.55554 -1455.1111 3595
843.3158 -1467.8948 3595
945.54547 -1489.1818 3595
1067.5555 -1482.3334 3595
1135.5 -1462 3595
1245.1 -1486.2 3595
1350.3334 -1495 3595
1658.8889 -1452.3334 3595
389 -1394 3595
3243.375 -1623.375 3614
3353.3333 -1625 3614
1022.5 -1503 3614
1298 -1503 3614
1346.125 -1503 3614
2893 -1529 3614
2931.6001 -1549 3614
3060.2354 -1552.1177 3614
3136.4187 -1539.8372 3614
3206 -1597 3614
3457.3999 -1548.3 3614
3513 -1544.3334 3614
-712.16669 -1427 3614
-473.28571 -1442.4286 3614
-388.5 -1423 3614
291.25 -1433.25 3614
359.78571 -1437.9286 3614
456 -1453.6666 3614
554.21429 -1459.0714 3614
614.83331 -1453 3614
754.20001 -1465.8 3614
844.40002 -1454.1 3614
937.44446 -1488 3614
1074.4 -1479.4 3614
1156.9166 -1465.0834 3614
1243.8 -1486.4 3614
1366.3334 -1495 3614
391 -1393 3614
3249 -1622.5 3633
3344.75 -1625.375 3633
998 -1503 3633
1028 -1503 3633
1297 -1503 3633
1350.1428 -1503 3633
1448 -1540.0769 3633
2895 -1511.5 3633
2953.625 -1551.625 3633
3064.7354 -1548.2646 3633
3151.1667 -1547.75 3633
3210.5 -1587.75 3633
3471 -1549.0909 3633
3530.1667 -1545.3334 3633
-710.79999 -1426 3633
-446.57144 -1438.5714 3633
-382 -1426 3633
295.79999 -1431.2 3633
364 -1455.2 3633
432.42856 -1447.5714 3633
566.25 -1468 3633
629.76471 -1449.1765 3633
747 -1438.2858 3633
853.23077 -1462.6923 3633
947.09088 -1488.9091 3633
1061.4286 -1488.1428 3633
1151.7142 -1465.1428 3633
1247 -1486.6 3633
-711.33331 -1352.1666 3633
-549 -1371.5 3633
380 -1400 3633
401 -1400 3633
3264.2856 -1623.5714 3653
1020.8 -1502 3653
1295 -1502 3653
1358.8889 -1504 3653
1447.9091 -1533.6364 3653
1553.8235 -1543.8235 3653
2958.1428 -1550.1428 3653
3064.0715 -1549.4642 3653
3121.8 -1551.9 3653
3213 -1537.2667 3653
3478.0833 -1563.25 3653
3555.5 -1562.5 3653
-707.5 -1433.75 3653
-476.22223 -1437.4445 3653
-393 -1429.5 3653
357.27777 -1448.6111 3653
433.22223 -1447.2222 3653
559.1875 -1466 3653
631.9231 -1454.2307 3653
746.5 -1446.5 3653
863 -1468.1666 3653
943.71429 -1490.1428 3653
1069.5 -1486.6666 3653
1155.1666 -1469.5 3653
1247.5294 -1454.4117 3653
1672 -1451 3653
-712.14288 -1378.7142 3653
-551.10168 -1375.1694 3653
369.20001 -1389.6 3653
3272.75 -1618 3672
3474.4736 -1625.421 3672
1021.8333 -1502 3672
1293 -1502 3672
1338.2222 -1506.4445 3672
1456.8889 -1536 3672
1654.5333 -1545.8 3672
2956.25 -1543.625 3672
3065.6001 -1544.7 3672
3105.6667 -1518.6666 3672
3243.7646 -1549.7059 3672
3486.1667 -1560.3334 3672
3563.8 -1543.9 3672
-711.40002 -1424 3672
-561.94116 -1436.1471 3672
-457.77777 -1430.9259 3672
356.69232 -1455.3077 3672
444.625 -1452.25 3672
557.33331 -1452.8 3672
645.21429 -1450.5 3672
737.41669 -1447 3672
870.33331 -1461.4166 3672
954.5625 -1488.5 3672
1039.1 -1450.65 3672
1152.2727 -1470.2727 3672
1251.6279 -1441.8837 3672
1672.9 -1453.4 3672
-707 -1391.75 3672
-635.46667 -1349.1333 3672
3287 -1613.6666 3692
3456.4375 -1629.4375 3692
1040 -1501 3692
1345.6666 -1508 3692
1453.4166 -1530.5834 3692
1650.0769 -1542.8462 3692
2965 -1535.8334 3692
3056.875 -1558.375 3692
3119.6667 -1518.3334 3692
3274.25 -1544.3334 3692
3492 -1579 3692
3613 -1573.3334 3692
-709 -1427.5 3692
-643.11108 -1436.5555 3692
-446.82608 -1425.826 3692
344.21429 -1447.2858 3692
444.875 -1446.875 3692
539.0625 -1467.9375 3692
667.52942 -1462.1765 3692
725 -1447.25 3692
878 -1460.8182 3692
948.05884 -1481.2941 3692
1042.5227 -1460.9091 3692
1159.9 -1464.5 3692
1306.2307 -1463.6154 3692
-639.35712 -1361.1072 3692
-461.72223 -1380 3692
3624.3333 -1614 3712
1360.4445 -1508.1111 3712
1459.1666 -1528.75 3712
1657 -1536.6428 3712
2976 -1530.2 3712
3052.3333 -1564.5 3712
3130 -1522.375 3712
3293 -1565.875 3712
3312.375 -1538.75 3712
3537.8999 -1552.1 3712
3624.3999 -1556.4 3712
-704 -1435.25 3712
-651.42108 -1437.6842 3712
-453 -1419.5 3712
343.63635 -1448.2727 3712
452.16666 -1455.3334 3712
543.0625 -1463.375 3712
667.46667 -1448.2667 3712
727.63635 -1445 3712
883.14288 -1453.1428 3712
965.54999 -1465.6 3712
1047.4231 -1460.9231 3712
1155.037 -1437.2593 3712
1235.579 -1435.8948 3712
1320.4166 -1454.8334 3712
-1056.5 -1322 3712
-645.35712 -1359.2142 3712
3519.875 -1627.25 3733
1358.6666 -1509 3733
1469.5 -1529.5 3733
1655.8462 -1540.0769 3733
2991 -1528 3733
3051.8889 -1563.5555 3733
3134.7778 -1532.5555 3733
3346.7856 -1543.5714 3733
3539.625 -1559.375 3733
3642 -1558.6666 3733
-668.04761 -1432.8096 3733
348.72223 -1441.4445 3733
446 -1452.1666 3733
541.88892 -1459.3334 3733
662.85712 -1443.8572 3733
726.13336 -1457.6666 3733
884.42859 -1435.2858 3733
974.96667 -1454.5333 3733
1096 -1456.6 3733
1147.5758 -1442.0909 3733
1230.2222 -1440.1111 3733
1336.6428 -1460.9286 3733
1681.6666 -1448.4 3733
-1125.3334 -1316.3334 3733
-1038.8 -1328.6 3733
3514.6667 -1618.5 3753
1379 -1512.5 3753
1453.875 -1526 3753
1658.8 -1540.6666 3753
3042.75 -1550.875 3753
3128.6667 -1543.5834 3753
3364.9375 -1560.6875 3753
3556.375 -1561.25 3753
3646.8 -1556 3753
347.94736 -1434.1052 3753
448.71429 -1450.4286 3753
543.83331 -1457 3753
653.85712 -1435.4286 3753
727.25 -1424.75 3753
891.79999 -1427.4 3753
955.71429 -1460.5238 3753
1152.5588 -1458.1765 3753
1344.4286 -1446.238 3753
-1123.6 -1318 3753
-1070.6 -1326.6 3753
3393 -1609.5 3774
3523.4443 -1621 3774
3711 -1614 3774
1386.5 -1512.5 3774
1463.3334 -1528.6666 3774
1672.9091 -1538.3636 3774
3067 -1536.3889 3774
3134.8572 -1543.619 3774
3390.4285 -1580.1428 3774
3436.6956 -1546.7391 3774
3549.875 -1568.75 3774
3638.25 -1545.25 3774
3703 -1588 3774
356.38461 -1435.1538 3774
450.60001 -1458.2 3774
562.20001 -1451.4 3774
657.375 -1437 3774
730 -1423.8334 3774
895 -1428 3774
944.23334 -1446.1333 3774
1159 -1468 3774
-1125.5714 -1315.5714 3774
-1053 -1333 3774
-975.33331 -1331 3774
3461.3999 -1625.7 3795
3521.3572 -1626.8572 3795
1399 -1511.5 3795
1446.1428 -1527.5714 3795
1659.2307 -1540.9231 3795
3087.3999 -1514.2 3795
3138.0527 -1525 3795
3215.5 -1520.5 3795
3454.3125 -1569.3125 3795
3548.4375 -1553 3795
3650.5715 -1549.4286 3795
3714 -1579 3795
361.90909 -1443.3636 3795
447.42856 -1456.5714 3795
557.375 -1458.5 3795
624 -1429.25 3795
727.14288 -1427.1428 3795
941.32001 -1448.6 3795
1388.5 -1431.6666 3795
1649.75 -1463.75 3795
-1075 -1325.2222 3795
3479.5 -1616.25 3816
3533.1538 -1619.5385 3816
3762 -1632 3816
1452.1818 -1528.2727 3816
1661.3636 -1535.6364 3816
3189 -1523.875 3816
3222.9285 -1515.3572 3816
3481.75 -1582.5 3816
3557.9565 -1553.5652 3816
3635 -1555.25 3816
3708 -1561 3816
366.20001 -1444 3816
446 -1454.2858 3816
