ply
format ascii 1.0
comment PCL generated
element vertex 2131
property float x
property float y
property float z
element camera 0
property float view_px
property float view_py
property float view_pz
property float x_axisx
property float x_axisy
property float x_axisz
property float y_axisx
property float y_axisy
property float y_axisz
property float z_axisx
property float z_axisy
property float z_axisz
property float focal
property float scalex
property float scaley
property float centerx
property float centery
property int viewportx
property int viewporty
property float k1
property float k2
end_header
-508.66666 -1398 2493
-490 -1398 2493
-885 -1425 2502
-769.25 -1426.5 2502
-548 -1412.2858 2502
-471 -1414.75 2502
-521 -1399 2502
-489 -1399 2502
-882 -1418.5 2511
-757.85712 -1429.5714 2511
-554.75 -1412.75 2511
-467 -1421.5 2511
-508 -1398 2511
-499 -1398 2511
-880 -1427 2521
-764.75 -1432 2521
-562.54547 -1421.5454 2521
-482 -1413 2521
-860.63635 -1430.3636 2535.7273
-755.3421 -1432.079 2534.9736
-562.10529 -1422.3684 2536.158
-470.33334 -1426.0834 2533.75
-846.5 -1433.25 2549
-732.54053 -1426.4595 2549
-606 -1449 2549
-563.40002 -1422.6 2549
-460 -1442 2549
-76 -1455 2549
-754.66669 -1385 2549
-847.30768 -1440.1538 2558
-743.43903 -1423.8536 2558
-670.53845 -1455.3846 2558
-543 -1422 2558
-463 -1442 2558
-68.75 -1455.5 2558
-760.33331 -1388 2558
-854.70587 -1445.1765 2568
-760.76923 -1426.3077 2568
-657.58826 -1457.5294 2568
-562.59998 -1427.6 2568
-465.57144 -1442 2568
-64.599998 -1452 2568
30.545454 -1466 2568
-845.10529 -1438.8422 2578
-713.5 -1423 2578
-662.40002 -1459.4 2578
-555.09998 -1429 2578
-455.57144 -1450.5714 2578
-51.714287 -1458.1072 2578
26.75 -1466 2578
765.40002 -1468 2578
-858.15002 -1444.4 2587
-713.28571 -1423.7142 2587
-653.70001 -1459.1 2587
-563 -1430 2587
-456.25 -1453 2587
-341 -1444 2587
-57.083332 -1453.5834 2587
39.333332 -1469.5 2587
217.5 -1475.5 2587
771.35297 -1466.4706 2587
950 -1477 2587
-767.20001 -1387.2 2587
-856.61536 -1453.4615 2597
-712 -1429.6666 2597
-661.44446 -1461.3334 2597
-544 -1437 2597
-455.55554 -1457.3334 2597
-339.42856 -1449.7142 2597
-102 -1468 2597
-56.266666 -1450.4 2597
44.785713 -1469.5714 2597
219.13333 -1473.6 2597
773.85712 -1466.5714 2597
947.40002 -1478.4 2597
-737.5 -1388 2597
-859.36365 -1439.8636 2607
-713 -1428 2607
-648.72729 -1464.8182 2607
-561.5 -1436.75 2607
-454.25 -1460.5 2607
-335.14706 -1449.7059 2607
-272 -1475 2607
-103 -1454.8572 2607
-50.052631 -1448.6842 2607
64.611115 -1473.2222 2607
195 -1478 2607
222.66667 -1469.7916 2607
753.73334 -1470.2 2607
805 -1465.4 2607
953.85712 -1481.1428 2607
-860.3158 -1437 2617
-714 -1428.3334 2617
-659.77777 -1467 2617
-556.5 -1441 2617
-445.5 -1469.2142 2617
-343.71429 -1467.6 2617
-256.88571 -1465.4857 2617
-108.4 -1465.5 2617
-46.933334 -1447.2 2617
79.42308 -1466 2617
160.25 -1465.375 2617
241.23529 -1471.1177 2617
307.33334 -1491 2617
513 -1494 2617
747.81818 -1475.9091 2617
818.63635 -1470.2727 2617
958.5 -1484.5 2617
2420 -1494 2617
-765 -1390.75 2617
-860.03229 -1437.6451 2627
-715.11108 -1427.5555 2627
-642.44446 -1466.7778 2627
-568.75 -1445.5 2627
-444.76923 -1468.2307 2627
-335.67346 -1472.1021 2627
-253.13158 -1469.6052 2627
-114.28571 -1472.1428 2627
-49.533333 -1446.4 2627
54.642857 -1467.5 2627
152.23077 -1474.2307 2627
252.26086 -1476.3043 2627
319.375 -1493 2627
514 -1497 2627
738.6875 -1479.5 2627
825.14288 -1467.2142 2627
961.28571 -1486.1428 2627
2435.375 -1497.5 2627
-741 -1395 2627
180 -1505 2637
362 -1505 2637
517.5 -1505 2637
718 -1505 2637
974 -1505 2637
2327 -1505 2637
2420 -1505 2637
-848.76923 -1423.7693 2637
-716.28571 -1424.7142 2637
-645.79999 -1466.8 2637
-550.28571 -1445 2637
-438.71429 -1467.8572 2637
-350.29999 -1451.75 2637
-228.77499 -1472.45 2637
-150.44 -1463.96 2637
-57.375 -1442.5 2637
59.642857 -1463.5714 2637
162.66667 -1466.5 2637
248.07692 -1466.2307 2637
319.21429 -1487.0714 2637
513.14288 -1493 2637
742.55554 -1474.5 2637
835.38464 -1473.9231 2637
962.59998 -1485.9 2637
2327 -1496 2637
2443.3 -1495.4 2637
-755.66669 -1395 2637
144.75 -1508 2648
368.75 -1508 2648
522.66669 -1505 2648
715 -1508 2648
836 -1508 2648
1001 -1505 2648
2336.5 -1505 2648
2453.5 -1508 2648
-847.28571 -1419.1428 2648
-713.16669 -1434.8334 2648
-640.875 -1472.5 2648
-559.83331 -1450.1666 2648
-427.47369 -1467.1842 2648
-357.22726 -1457.9091 2648
-245.35294 -1460.3529 2648
-163.38889 -1472.5 2648
-45.57143 -1450.3572 2648
53.875 -1464.75 2648
147.61539 -1458.5641 2648
260.20001 -1474.12 2648
326.625 -1488.125 2648
516.20001 -1493 2648
735.66669 -1477.75 2648
834.625 -1474.375 2648
965.66669 -1489.8334 2648
1001 -1499 2648
2334.3999 -1493 2648
2452.5293 -1493 2648
-788 -1400 2648
371.5 -1509 2658
450.11111 -1513.6666 2658
541 -1511 2658
651.09088 -1511.5454 2658
708 -1511 2658
848.75 -1512.5 2658
936 -1511 2658
1011 -1517 2658
2344.875 -1512.125 2658
2454 -1510.25 2658
2508.6667 -1510.3334 2658
-846.27271 -1422.5454 2658
-722.75 -1425.6666 2658
-659.66669 -1478.8334 2658
-560 -1452 2658
-431.78262 -1460.3478 2658
-339.75 -1442.1 2658
-265.11111 -1456 2658
-154.40277 -1471.5695 2658
-32.833332 -1455.8334 2658
62.285713 -1469.6428 2658
147.23914 -1458.1086 2658
254.3 -1465.25 2658
325.25 -1486.5 2658
496.60001 -1493.2 2658
519 -1492 2658
735.55554 -1480.2778 2658
850.125 -1472 2658
962.83331 -1489 2658
1005 -1498 2658
2345.5652 -1486.7826 2658
2467.25 -1494.25 2658
2502 -1498 2658
375.375 -1508.625 2668
545 -1510 2668
653.65717 -1511.7715 2668
702 -1507 2668
860 -1514.6666 2668
940 -1504 2668
1015 -1517 2668
2360.6001 -1510.9 2668
2425.3 -1515.4 2668
2528.125 -1511.875 2668
-834.5 -1410 2668
-732.66669 -1421.4667 2668
-661.79413 -1430.5883 2668
-558.55554 -1456.1111 2668
-443.77777 -1454.7778 2668
-355.64999 -1444.05 2668
-275 -1451.3572 2668
-158.21428 -1448.8572 2668
-46.692307 -1452.7693 2668
47.176472 -1471.7059 2668
148 -1463.4482 2668
254.71428 -1463.7142 2668
328.30768 -1484 2668
484.875 -1482.125 2668
514.55554 -1485.2222 2668
653.875 -1497.25 2668
725.53333 -1479.1333 2668
838.20001 -1473.2 2668
963 -1493.5 2668
1002 -1498 2668
2348.9524 -1481.8572 2668
2466 -1493.0909 2668
2517.25 -1496.5 2668
378.57144 -1506.5714 2679
458.13333 -1515.3334 2679
560 -1514 2679
643.53845 -1509.7693 2679
869.5 -1519.75 2679
938.5 -1518.25 2679
1019 -1516.6666 2679
1386.5 -1529 2679
1419 -1529 2679
2337.6667 -1514.5 2679
2418.2307 -1519.0769 2679
2552 -1518.125 2679
-834.59998 -1413.4 2679
-723.5 -1426.2916 2679
-658.57141 -1432.0204 2679
-551.75 -1458.5 2679
-444.875 -1454.9375 2679
-341.1875 -1434.875 2679
-263.89474 -1450.8422 2679
-148.18182 -1447.6364 2679
-42.5 -1454 2679
51.103447 -1460.2069 2679
152.21428 -1454.5714 2679
255.07143 -1462.7142 2679
337.11111 -1485.8889 2679
471.14285 -1485.2142 2679
545 -1491.375 2679
666.23077 -1492 2679
741.5 -1476 2679
854.66669 -1478.1111 2679
965.5 -1494.5 2679
2361.3501 -1480.55 2679
2446 -1498 2679
2537 -1498 2679
396 -1516 2689
571.28571 -1511.4286 2689
637.75 -1513.25 2689
881.59998 -1519.8 2689
937.5 -1522.5 2689
1020.6667 -1516 2689
1352.1428 -1533.2858 2689
1418.7778 -1531 2689
2268.4546 -1530.4546 2689
2327.3333 -1520.2222 2689
2422 -1511.9286 2689
2571.5557 -1520.2222 2689
-826.75 -1411.75 2689
-714.70001 -1432.1 2689
-644.28204 -1443.1282 2689
-563 -1460.6154 2689
-439.75 -1453 2689
-351.27274 -1440.3636 2689
-262.78571 -1450.6428 2689
-156.75 -1450 2689
-41.333332 -1455 2689
47.40625 -1455.875 2689
148.46666 -1465.1333 2689
260.5 -1461.5 2689
331.28571 -1484.2858 2689
470.23077 -1476.6923 2689
564.78571 -1485.2142 2689
630.93335 -1489.8667 2689
736.70001 -1476.2 2689
855.5 -1480.5 2689
984.5 -1497 2689
2358.8889 -1475.6111 2689
2443.0588 -1493.6471 2689
2530.6667 -1497 2689
374.39999 -1507.8 2700
570.26318 -1514.2632 2700
657.40002 -1508 2700
890.66669 -1521 2700
946.28571 -1520.1428 2700
1022 -1514 2700
1352.7778 -1533.7222 2700
1435.2941 -1529.7059 2700
2277.5881 -1527.2354 2700
2316.8215 -1525.2142 2700
2441.4285 -1505.5714 2700
2583.75 -1518.75 2700
-835 -1419.6 2700
-733.625 -1428.375 2700
-655.72223 -1447.9445 2700
-570.375 -1459.375 2700
-458.07693 -1457.0769 2700
-355.3125 -1440.4375 2700
-261.23077 -1449 2700
-151.2 -1450.8 2700
-52.18182 -1455.5454 2700
41.71875 -1460.7812 2700
149 -1447.7273 2700
258.54544 -1463.9091 2700
332.27274 -1482.4546 2700
467.11111 -1474 2700
556.11768 -1487.0588 2700
645.66669 -1485.6666 2700
739.55554 -1477 2700
847.16669 -1478.6666 2700
1204 -1497 2700
2355.2222 -1476.8889 2700
2443.9167 -1476.25 2700
2534.6365 -1497 2700
375.66666 -1509.3334 2711
424.20001 -1514.3 2711
652.88892 -1509.8889 2711
930.7619 -1527.4286 2711
1029.8 -1525.6 2711
1173.2059 -1527.0294 2711
1207.5 -1515.6666 2711
1343.1875 -1535.9375 2711
1450.8667 -1535.3334 2711
2273.9231 -1526.3846 2711
2325 -1518.3334 2711
2470.5715 -1503 2711
2560 -1505 2711
2603.75 -1526.75 2711
-838.42859 -1414.5714 2711
-737 -1412 2711
-663.71997 -1455.08 2711
-548 -1466.8182 2711
-447.30768 -1454.3846 2711
-369 -1445.5 2711
-259.92307 -1449.5385 2711
-159.66667 -1453 2711
-39.916668 -1458.3334 2711
34.535713 -1467.1786 2711
147.625 -1451.25 2711
262.33334 -1463 2711
344 -1483.8 2711
455.33334 -1480.5834 2711
551.34998 -1487.05 2711
641.27271 -1482.5454 2711
745.40002 -1481 2711
847.375 -1485.375 2711
2360 -1476.2 2711
2452.2 -1464.5 2711
2523.4092 -1459.1364 2711
380.33334 -1511.6666 2721
421.83334 -1511.5 2721
653.57141 -1504.5714 2721
1033.6 -1522.4 2721
1152.7941 -1525.3529 2721
1219.0952 -1530.619 2721
1350.9166 -1535.5834 2721
1457.7222 -1534.4445 2721
2273.5454 -1529.9091 2721
2320.9285 -1509.2142 2721
2487.5 -1502 2721
2550.7144 -1502.8572 2721
2615 -1529.6666 2721
-825.79999 -1421.4 2721
-744.15387 -1411.5385 2721
-664.29169 -1453.7084 2721
-550.75 -1467.75 2721
-448.58823 -1454.6471 2721
-351.83334 -1442 2721
-265.63635 -1445.8182 2721
-148.84616 -1455.1538 2721
-39.400002 -1459.1 2721
37.666668 -1452.5 2721
156.875 -1451.125 2721
245.5 -1463.75 2721
337.60001 -1484.3 2721
462.83334 -1479.3334 2721
554.23077 -1481.3077 2721
643 -1485.625 2721
739.66669 -1481 2721
856 -1483 2721
1207 -1496 2721
2358.5833 -1478.75 2721
2533.0435 -1463.5652 2721
377.5 -1509.5 2732
415.5 -1517.75 2732
657 -1505.6 2732
898 -1502 2732
930.75 -1519.375 2732
1146.7333 -1529.2667 2732
1467.8 -1533.1 2732
2275.375 -1535.375 2732
2314.75 -1507.5 2732
2487.6667 -1502 2732
2526.1667 -1502 2732
2627.8572 -1532.8572 2732
-836.5 -1420 2732
-738.72729 -1410.4546 2732
-660.46155 -1456.4615 2732
-537.77777 -1475.6666 2732
-450.92856 -1454.3572 2732
-354.39999 -1442.7 2732
-255.53847 -1454.3077 2732
-154.3 -1455.6 2732
-31.428572 -1459.5714 2732
41.214287 -1448.1428 2732
146.44444 -1455.3334 2732
254.92308 -1463.3077 2732
348.1875 -1485.9375 2732
459.61539 -1479.1538 2732
552.03333 -1477.1333 2732
643.21429 -1482.5714 2732
763.375 -1486.625 2732
843.85712 -1487.2858 2732
2358.6155 -1481.6154 2732
2537.6206 -1465.7587 2732
385.71429 -1509.5714 2743
411.77777 -1512.7778 2743
659.375 -1506.125 2743
850 -1501 2743
967.625 -1519 2743
1149.4286 -1524.7858 2743
1453.2142 -1532.9286 2743
2278.3635 -1537.7273 2743
2320.8333 -1507.6666 2743
2517.2 -1501 2743
2628.8333 -1523.8334 2743
-826 -1425.2858 2743
-736.375 -1409.75 2743
-654.25 -1444.5625 2743
-546.40002 -1472.5 2743
-451.88889 -1455.4445 2743
-351.07693 -1442.3077 2743
-253.71428 -1452.2142 2743
-145.88889 -1459.1111 2743
-47.5625 -1460.8125 2743
56.5 -1449 2743
143.3 -1454.9 2743
256.60001 -1466.8 2743
360.6087 -1484.5217 2743
445.375 -1483.75 2743
554.5 -1470.5834 2743
632 -1476.4667 2743
739.29999 -1484.5 2743
855.20001 -1492.2 2743
2358.6155 -1483.9231 2743
2554.8293 -1474.439 2743
413.83334 -1513.8334 2754
669.5 -1505.5 2754
795 -1501 2754
802 -1501 2754
935.75 -1522.625 2754
1255.5 -1532.2858 2754
1471.6666 -1531.1111 2754
2278.2222 -1546.2222 2754
2318.75 -1511.25 2754
2524 -1501 2754
2642.3999 -1531.3 2754
-828.20001 -1416.8 2754
-746.85712 -1413.5714 2754
-656.08331 -1425.8334 2754
-534.85712 -1479.8572 2754
-459.375 -1455.0625 2754
-350.28571 -1443.7142 2754
-266.75 -1448.3334 2754
-149 -1459.8572 2754
-39.63158 -1458.421 2754
45.545456 -1449.2727 2754
132.875 -1456.75 2754
252.5 -1467.5834 2754
368.875 -1483.5 2754
455.39999 -1482 2754
556.71429 -1469.2858 2754
639.70587 -1473.9412 2754
767.75 -1489.5 2754
860 -1491 2754
2355.5 -1485.2858 2754
2548.5417 -1465.5 2754
2605 -1491 2754
665.5 -1507 2765
817.66669 -1507 2765
954.16669 -1523.1666 2765
1252.2307 -1529.8462 2765
1445.9 -1537.9 2765
2278.9092 -1554 2765
2320.6001 -1516 2765
2655.1111 -1529.2222 2765
-819.77777 -1425 2765
-749.53333 -1414.0667 2765
-654.90912 -1428.6364 2765
-540.85712 -1473.3572 2765
-464.42856 -1445.9429 2765
-353.77777 -1447.2222 2765
-262.16 -1447.16 2765
-151.33333 -1460.3334 2765
-40.625 -1455 2765
49.700001 -1450 2765
175.8 -1462.6 2765
265.20001 -1473 2765
351.23077 -1483.7693 2765
444.39999 -1486.2667 2765
544.07141 -1471.5714 2765
657.86664 -1481.1333 2765
742 -1490 2765
865.5 -1497 2765
2365.5 -1483.4 2765
2611.6667 -1475.6666 2765
671.66669 -1507 2777
821.5 -1507 2777
938.83331 -1528.6666 2777
1463.8572 -1538.7142 2777
2320.2856 -1520.7142 2777
2670.75 -1542.75 2777
-819.66669 -1422.3334 2777
-763.25 -1412.45 2777
-648.88892 -1436.7778 2777
-523.16669 -1457.3334 2777
-469 -1439.3871 2777
-345.375 -1446.625 2777
-258.48486 -1442.7576 2777
-143.84616 -1462.0769 2777
-52.650002 -1455.65 2777
53.666668 -1453.25 2777
146.5 -1462.75 2777
259.58334 -1471.0834 2777
357.54544 -1483.1818 2777
431.81818 -1491.3636 2777
547.70001 -1473.1 2777
656.17389 -1483.0435 2777
761.125 -1493.75 2777
869.33331 -1500 2777
2379.6191 -1469.619 2777
2624.3635 -1473.0909 2777
819.75 -1511.25 2788
1252.3334 -1530.1666 2788
2327.5715 -1522.1428 2788
2673 -1524.8334 2788
-811.86664 -1432.1333 2788
-770.63159 -1412.579 2788
-655.41669 -1433.25 2788
-534.86365 -1458.3636 2788
-457.11111 -1438.7778 2788
-351 -1449.5555 2788
-249.71428 -1446.5358 2788
-148.53847 -1462.3846 2788
-62.227272 -1452.9546 2788
46.76923 -1452.3846 2788
138.55556 -1462.3334 2788
239.57143 -1476.5714 2788
327.5 -1489.125 2788
448.66666 -1488.3334 2788
547.5 -1472.875 2788
659.1579 -1478.1052 2788
746.29999 -1494.4 2788
880.5 -1500 2788
2381.7727 -1469.5454 2788
842.40002 -1509 2799
950.77777 -1532.6666 2799
1250.9 -1530 2799
2332.1819 -1524.1818 2799
2683.5 -1527 2799
-744.76923 -1406.6923 2799
-644.79999 -1441.2 2799
-535.61902 -1458.7142 2799
-450.23077 -1443 2799
-336.25 -1444.4166 2799
-232.80952 -1457.1428 2799
-123.5 -1459.6666 2799
-63.25 -1451.4 2799
67.166664 -1454.1666 2799
150.36363 -1465.7273 2799
257.33334 -1475.6666 2799
348.58334 -1488.3334 2799
435.52942 -1489.1765 2799
551.44446 -1477.2222 2799
659.29999 -1474 2799
735 -1495.5714 2799
795.5 -1506 2811
836 -1513.3334 2811
1230.5 -1525 2811
2334.2 -1530 2811
2685.3333 -1514.3334 2811
-739 -1408.5 2811
-654.0625 -1436.75 2811
-545.34784 -1464.7826 2811
-445.91666 -1447.1666 2811
-346.39999 -1447.8667 2811
-240.3 -1444.5 2811
-138.66667 -1457.75 2811
-66.875 -1444.9375 2811
45.916668 -1456.5 2811
160.7 -1468.1 2811
245.57143 -1479 2811
343.44446 -1489.3334 2811
444.81631 -1455.6735 2811
543 -1479.375 2811
647.73334 -1472.3334 2811
719.5 -1494 2811
2384.6924 -1466 2811
769 -1505 2823
852.11108 -1515.1111 2823
942 -1533.8572 2823
1259.125 -1540.25 2823
2341.25 -1533.5 2823
2693.5 -1508.5 2823
2729.6667 -1559.8889 2823
-738.75 -1409.375 2823
-634.90912 -1448.9091 2823
-549 -1470.9445 2823
-458.75 -1443.375 2823
-346.71429 -1447.6428 2823
-247.5 -1439.1666 2823
-143.94118 -1455.6471 2823
-52.076923 -1447.2307 2823
50.799999 -1460.4 2823
143.72728 -1467.4546 2823
243.875 -1481.625 2823
345.60001 -1494.2 2823
443.51019 -1456.5306 2823
555.83331 -1483.5 2823
660.84613 -1473.2307 2823
717.75 -1495.75 2823
2388.2222 -1472.3334 2823
768.5 -1508 2834
855.44446 -1515.6666 2834
1224 -1538 2834
2348.4119 -1533.2354 2834
2739.4285 -1557.8572 2834
-726 -1413 2834
-644.20001 -1443.7 2834
-552.20001 -1462.4667 2834
-451.33334 -1448.2222 2834
-344.84616 -1445.6923 2834
-251.18182 -1437.4546 2834
-133.77777 -1451.3334 2834
-59.545456 -1445.1818 2834
37.333332 -1462.6666 2834
158.55556 -1471.1111 2834
239 -1483 2834
334.18182 -1491.3636 2834
443.89655 -1460.3103 2834
537.79999 -1487.4 2834
665.44446 -1474.1111 2834
708.5 -1491.5 2834
2390.625 -1477.125 2834
2700 -1498 2834
354.5 -1504 2846
751.625 -1508.375 2846
864.61536 -1518.2307 2846
928.71429 -1531 2846
1274.8334 -1541.1666 2846
2347.1538 -1541.7693 2846
2749.1111 -1557.6666 2846
-722.42859 -1415.7142 2846
-639.5625 -1449.6875 2846
-552.28571 -1459.0714 2846
-450.25 -1454.25 2846
-355.17648 -1449.4706 2846
-246.5 -1441.75 2846
-155.69231 -1460.7693 2846
-56.25 -1448.5 2846
48 -1464 2846
138.71428 -1471 2846
242.55556 -1485.7778 2846
341 -1491 2846
450.65384 -1452.7693 2846
549.20001 -1491 2846
658.40002 -1475.2 2846
711.5 -1486 2846
2394.1111 -1476.8889 2846
2707.3333 -1486.6666 2846
356 -1504 2858
755.875 -1510.625 2858
844 -1517.8889 2858
2352.6667 -1543.4445 2858
2753.25 -1549.25 2858
-720.66669 -1416.6666 2858
-637.40912 -1453.2727 2858
-557.33331 -1464.4445 2858
-442.25 -1459.6666 2858
-347.19049 -1441.619 2858
-259.39999 -1438 2858
-134.375 -1453.625 2858
-52.099998 -1451.7 2858
32.833332 -1468 2858
151.66667 -1475.4445 2858
243.85715 -1490 2858
345.54544 -1490.6364 2858
451.16 -1449.72 2858
552.5 -1494 2858
651 -1480.5 2858
718.14288 -1486.7142 2858
2395 -1480.5 2858
2715.3999 -1473 2858
-591 -1504 2870
367.5 -1505.5 2870
519 -1504 2870
763.25 -1512.875 2870
864.79999 -1521.4667 2870
934.33331 -1532 2870
2349.7222 -1552.5555 2870
2772.8333 -1565.1666 2870
-721 -1417.8572 2870
-634.38098 -1458.1904 2870
-552.06665 -1456.2 2870
-452.25 -1455.625 2870
-353.11765 -1440.8235 2870
-247.10001 -1447 2870
-149.41667 -1459.9166 2870
-44.857143 -1455.4286 2870
50.416668 -1470 2870
139 -1475.7142 2870
255.5 -1492.3334 2870
358.63635 -1490 2870
445.46667 -1456.4667 2870
543.83331 -1497 2870
653.66669 -1480.4445 2870
728.59998 -1485.4 2870
1061.5454 -1492.5454 2870
2398 -1490 2870
2727 -1477.6666 2870
-594 -1503 2882
364 -1503 2882
526.25 -1503 2882
763.40002 -1514 2882
853.4375 -1519 2882
1055 -1532.75 2882
2354.6843 -1553.7894 2882
2401 -1510 2882
2765.5715 -1536 2882
-721.16669 -1417.5 2882
-634.16669 -1452.0416 2882
-581.23077 -1475.0769 2882
-444 -1463.25 2882
-360.25 -1443.875 2882
-244.16667 -1451.1666 2882
-133.66667 -1453.3334 2882
-46.454544 -1456.7273 2882
48.400002 -1469.7 2882
142.5 -1479.5 2882
247.33333 -1494 2882
365.61539 -1489.2307 2882
463.57144 -1441.1428 2882
534.83331 -1492.8334 2882
656.5 -1483 2882
732.20001 -1487 2882
1075.3572 -1487.7858 2882
259.66666 -1503 2894
368.75 -1504.5 2894
554 -1503 2894
608.5 -1503 2894
773.75 -1517 2894
860.5 -1515.6875 2894
946.23077 -1517.0385 2894
1053.125 -1539.875 2894
2350.1924 -1560.1538 2894
2404 -1509.3334 2894
2779.5 -1541.75 2894
-721.83331 -1418.8334 2894
-641.73334 -1443.2667 2894
-559.28571 -1457.4286 2894
-455.875 -1462.5 2894
-351.61539 -1441.0769 2894
-247 -1452.4 2894
-141.875 -1460 2894
-58.333332 -1457.3334 2894
31 -1472 2894
154.91667 -1483.75 2894
238 -1491.3334 2894
359.5625 -1489.4375 2894
440.5 -1438 2894
507.20001 -1483.6 2894
646.66669 -1486.6666 2894
730.88892 -1485.1111 2894
1076.4445 -1482 2894
1104 -1485.5 2894
259.75 -1502 2907
543 -1505.5 2907
777.14288 -1516 2907
863.33331 -1516.5834 2907
959.0213 -1523.0212 2907
1047.4464 -1540.625 2907
2352.1052 -1561.9474 2907
2405.6001 -1516 2907
2787 -1540 2907
-726 -1420.6666 2907
-636.375 -1445.25 2907
-555.20001 -1452.6 2907
-449.90909 -1465.2727 2907
-365.83334 -1448 2907
-250.22223 -1453.8889 2907
-149.57143 -1471.4286 2907
-42.75 -1463.25 2907
47.333332 -1471.7333 2907
149.90909 -1483.9091 2907
355.23077 -1489.5385 2907
443.75 -1443.9166 2907
510.83334 -1482.1666 2907
662.88892 -1486.6666 2907
742.5 -1486.375 2907
890.5 -1496 2907
1078.2858 -1482 2907
1114 -1485.5 2907
252.66667 -1507.8334 2919
305.5 -1502 2919
560.79999 -1507.6 2919
613.5 -1507.25 2919
784 -1515.6 2919
850.54547 -1521.0909 2919
956.70367 -1520.5186 2919
1036.3143 -1534.6285 2919
2283.7273 -1555.4546 2919
2349.2104 -1557.2632 2919
2409 -1516.5714 2919
2795 -1519 2919
2809 -1561 2919
-723.57141 -1422.4286 2919
-628.63635 -1446.9091 2919
-548.75 -1450.3334 2919
-455.75 -1465 2919
-341.875 -1440 2919
-247 -1458.7142 2919
-145.66667 -1467 2919
-51.285713 -1463 2919
49.875 -1469.6666 2919
133.89999 -1481.7 2919
209.5 -1495 2919
376.60001 -1487.3 2919
414.75 -1452.25 2919
511.25 -1460.1666 2919
672.83331 -1488 2919
742.125 -1488 2919
894.5 -1491.5 2919
910.40002 -1492.2 2919
1071.3334 -1488 2919
1120.5 -1484.5 2919
263 -1511 2932
313.5 -1502 2932
558.625 -1511.875 2932
633 -1502 2932
783.25 -1510.5 2932
850.45453 -1523.4546 2932
968.88232 -1517.3529 2932
1025.7894 -1534.421 2932
2154 -1502 2932
2289 -1556 2932
2350.5208 -1549.1459 2932
2406.5 -1525.5 2932
2823.8 -1552.6 2932
-732.66669 -1419 2932
-645.25 -1443.9166 2932
-565.61108 -1455.3334 2932
-461 -1462.875 2932
-365.66666 -1451.1666 2932
-256.11111 -1456.5555 2932
-129.2 -1458.8 2932
-43.125 -1468.75 2932
62.783783 -1460.6487 2932
142.57143 -1484.5 2932
203.5 -1495 2932
357.66666 -1491.1111 2932
419.14285 -1446.5714 2932
522.70001 -1470.7 2932
663 -1490 2932
743.57141 -1488 2932
891.5 -1491.5 2932
937.83331 -1492.0834 2932
1079 -1488 2932
1122 -1486.8334 2932
2205.5 -1474 2932
2808 -1495 2932
-181.5 -1501 2944
254.8 -1510.8 2944
311 -1503.3334 2944
544.25 -1508 2944
618.66669 -1511.5 2944
788 -1508 2944
844 -1525.6666 2944
976.25 -1530.375 2944
1024.9286 -1526.7142 2944
1153 -1542.4399 2944
2167.8572 -1506.5 2944
2281 -1561.6666 2944
2353.1614 -1537.129 2944
2415.1111 -1517.3334 2944
2827.3999 -1538.2 2944
-729.59998 -1425 2944
-635 -1442.8572 2944
-559.64288 -1449.2142 2944
-455.10001 -1472.5 2944
-354.25 -1449.25 2944
-242.28572 -1466.2858 2944
-139.77777 -1465.6666 2944
-43.714287 -1468 2944
55.36842 -1455.5264 2944
136 -1476.1428 2944
363.20001 -1490.5 2944
422 -1444.2 2944
527.15387 -1464.1538 2944
671.71429 -1489 2944
748.25 -1490.5 2944
895.5 -1490.5 2944
944 -1490.5 2944
1062.5 -1490.5 2944
1138 -1491.6666 2944
2215 -1476 2944
2812 -1494 2944
-439.5 -1501 2957
-181.33333 -1501 2957
254.5 -1511 2957
317.66666 -1503.3334 2957
568.91669 -1515.4166 2957
635.5 -1506 2957
796 -1512 2957
849.79999 -1526.7 2957
970.25 -1501 2957
1025.1428 -1544.5 2957
1165.25 -1544.3572 2957
2155.8 -1517 2957
2260.0557 -1546.8889 2957
2342.6924 -1532.3077 2957
2415 -1521.25 2957
2846 -1551.1428 2957
-734 -1424 2957
-638.20001 -1448.5 2957
-548.30768 -1446.0769 2957
-454 -1470.6666 2957
-348.44446 -1449.6666 2957
-234.42857 -1474 2957
-136.25 -1465.125 2957
-53 -1473 2957
54.727272 -1453.2727 2957
141.11765 -1476.7059 2957
357.75 -1493.125 2957
422.25 -1445 2957
536.94446 -1463.6666 2957
673.71429 -1489 2957
732.5 -1494 2957
896 -1494 2957
938.36365 -1490.1818 2957
1041.5 -1494 2957
1117.75 -1488.75 2957
2811 -1494 2957
-187 -1507 2970
256.66666 -1515.5555 2970
307 -1507 2970
576 -1515 2970
615.40002 -1518.2 2970
839.15387 -1526.3846 2970
1055.8 -1507 2970
2139.4399 -1558.52 2970
2252.0667 -1542 2970
2346 -1535 2970
2426 -1520.125 2970
2855.2 -1537.8 2970
-726.5 -1433.125 2970
-642 -1447.5 2970
-555.5 -1447 2970
-452.19232 -1460.0769 2970
-380.25 -1459.75 2970
-252.66667 -1467.3334 2970
-147.15384 -1469.8462 2970
-51.666668 -1473.5555 2970
42.888889 -1457.2222 2970
148.3125 -1477.6875 2970
248 -1500 2970
340 -1495 2970
426 -1438.6666 2970
539.33331 -1455.8667 2970
665.16669 -1493 2970
747.16669 -1494.1666 2970
893 -1500 2970
946.55554 -1493 2970
1041.8 -1497.2 2970
1129.75 -1494.75 2970
2771.6667 -1483.6666 2970
2816 -1496.5 2970
-183.5 -1507 2983
260 -1517.2307 2983
316 -1507 2983
582 -1514 2983
620.5 -1518.6666 2983
799 -1507 2983
855.16669 -1525.0834 2983
1053 -1508 2983
2147.3845 -1560.0385 2983
2257.7334 -1532.6666 2983
2328.55 -1535 2983
2422 -1525 2983
2870 -1541.2222 2983
-745.25 -1421.25 2983
-635.875 -1450.125 2983
-558 -1447.2307 2983
-453.84848 -1455.4546 2983
-351.81818 -1454.8182 2983
-251.75 -1469.6666 2983
-147.15384 -1470.3846 2983
-50.5 -1473.75 2983
47.375 -1460.625 2983
149.61539 -1478.4615 2983
295 -1500 2983
347.18182 -1499.3636 2983
414 -1466.4 2983
562.27271 -1477.7273 2983
672.125 -1491.25 2983
754.20001 -1498.6 2983
961.54547 -1496.1818 2983
1022 -1497 2983
1148 -1500 2983
2086 -1469.8462 2983
2816.3333 -1497.6666 2983
-184.5 -1506 2996
246.76923 -1514.6154 2996
317 -1506 2996
592.40002 -1517.2 2996
627.55554 -1514.5555 2996
838.90912 -1527.6364 2996
900 -1506 2996
1057 -1508 2996
1186.6666 -1547.3334 2996
2150.8647 -1564.4865 2996
2265.2727 -1548.4091 2996
2336.7317 -1527.7561 2996
2429.5 -1523.5 2996
2890 -1559.25 2996
-740.40002 -1428.3 2996
-639.55554 -1451.5555 2996
-553.5 -1443.5 2996
-448.86487 -1463.6216 2996
-357 -1460.5 2996
-246.07143 -1472 2996
-150.08333 -1467.5 2996
-48 -1485 2996
41.25 -1463.125 2996
153.5 -1478 2996
296 -1499 2996
356.66666 -1465.1666 2996
426.45456 -1439.8182 2996
563.66669 -1469.3334 2996
668 -1494.3334 2996
755.33331 -1499 2996
949.76923 -1495.2307 2996
1020 -1494.8 2996
1132 -1499 2996
2083.5 -1474.5 2996
2758.6667 -1485 2996
-189 -1506 3009
257.60001 -1514.4 3009
346.55554 -1506 3009
594 -1509.5 3009
627 -1515 3009
735 -1506 3009
845.42859 -1530 3009
1067 -1510.6666 3009
1139.8334 -1508.3334 3009
1638.0834 -1554.125 3009
2083.8333 -1542.0555 3009
2151.6667 -1561.4073 3009
2350.4614 -1526.6666 3009
2429.4285 -1526 3009
2867 -1516.5 3009
2906.5 -1567.5 3009
-740 -1431.1818 3009
-648 -1451.8 3009
-547.33331 -1445.2667 3009
-443.46667 -1459.3667 3009
-370.5 -1463 3009
-232.92857 -1477.0714 3009
-162.90475 -1471.7142 3009
-59.200001 -1479.2 3009
53.5 -1463 3009
160.10001 -1483.3 3009
293.5 -1495.5 3009
359.29999 -1446.6 3009
571.85712 -1461.5238 3009
664 -1495 3009
758.33331 -1499 3009
966 -1497.25 3009
1022 -1494 3009
2754.3333 -1487.3334 3009
2811 -1499 3009
-186.5 -1505 3022
199 -1505 3022
250.5 -1511.5625 3022
355 -1505 3022
618.92859 -1513.5 3022
739.14288 -1505 3022
851.88232 -1531.9412 3022
929.33331 -1507.3334 3022
1067.6666 -1513.1666 3022
1148.0909 -1509.4546 3022
1639.3462 -1545.1154 3022
1933.1 -1561.2333 3022
2079.05 -1542.85 3022
2134.7585 -1560.2069 3022
2320.7334 -1549 3022
2435 -1523.6842 3022
2854.75 -1512 3022
2915 -1553.4 3022
-745.33331 -1429.5 3022
-651.9231 -1443 3022
-545.53845 -1442.0769 3022
-443.28 -1452.4399 3022
-346.66666 -1463.7778 3022
-234.1875 -1477 3022
-171.31818 -1474.4546 3022
-45.833332 -1484.5834 3022
38.799999 -1470 3022
160.86667 -1482.1333 3022
279.33334 -1494.1111 3022
352.16666 -1458.4166 3022
419 -1455.5714 3022
569.09088 -1451.7273 3022
633.88892 -1493.3334 3022
957 -1498 3022
1023.4 -1492.4 3022
1619.7273 -1491.6364 3022
2753.75 -1489.25 3022
2809 -1498 3022
233.33333 -1510.0555 3036
349.60001 -1505 3036
622.14288 -1508 3036
748.79999 -1510.6 3036
856.66669 -1526.4166 3036
939.59998 -1506.4 3036
1074.5 -1512.875 3036
1126.3334 -1512 3036
1637.5555 -1535.9445 3036
1945.625 -1555.2031 3036
2082.2964 -1563.6296 3036
2124.6411 -1563.1025 3036
2318.8999 -1569.1 3036
2443.4707 -1518.6471 3036
2850 -1512 3036
2935.8 -1559.2 3036
-743.13336 -1430.4667 3036
-658.08002 -1436.6 3036
-542.625 -1445.375 3036
-446.70001 -1443.1 3036
-374 -1469 3036
-235.11111 -1474.3334 3036
-162.86667 -1460.1333 3036
-55.454544 -1485.1818 3036
44.111111 -1471.8889 3036
158.63637 -1479.1818 3036
262.55554 -1494.1111 3036
344 -1450.3 3036
420 -1441.5 3036
555.16669 -1453.8334 3036
635.90002 -1488.35 3036
961.28571 -1498 3036
1031.3334 -1498 3036
1414.5 -1484 3036
1622.6666 -1488.6666 3036
2748 -1491 3036
227.42857 -1505 3049
358.33334 -1508.6666 3049
401 -1504 3049
746.22223 -1510.2222 3049
848.0769 -1525.6923 3049
946.14288 -1505 3049
1076.8572 -1510.2858 3049
1156.2222 -1516.2222 3049
1417.2858 -1534.6428 3049
1635.1666 -1537.6111 3049
1935.5161 -1556.8064 3049
2067.1428 -1562 3049
2460.7856 -1519.1428 3049
2853.5 -1515 3049
2942.5 -1568.75 3049
-732.45453 -1422.1364 3049
-659.11426 -1438.8 3049
-560.08331 -1446.4166 3049
-450 -1448.6666 3049
-399 -1469 3049
-244.58333 -1473.6666 3049
-158.7 -1459.8 3049
-44 -1486.1818 3049
46.42857 -1474 3049
157.2 -1478.8 3049
240.125 -1493.9375 3049
341.85715 -1471.5714 3049
558.5 -1449.3334 3049
635.90002 -1483.45 3049
968.66669 -1497 3049
1023.7143 -1497 3049
1420.9231 -1491.6154 3049
1637 -1487 3049
1786 -1476 3049
361.39999 -1511 3063
403 -1504 3063
694.5 -1504 3063
761.28571 -1515 3063
854.85712 -1533.7142 3063
947.27271 -1506.6364 3063
1076.5714 -1507 3063
1135 -1518 3063
1254.4667 -1549.6 3063
1427.88 -1537.6801 3063
1649.6522 -1538.0869 3063
1952.1 -1544.0333 3063
2063.52 -1537.5601 3063
2466 -1526 3063
2768 -1504 3063
2861 -1518.3334 3063
2958.5557 -1564.6666 3063
-731.89655 -1429.1379 3063
-643.83331 -1438.2916 3063
-554.09998 -1446.1 3063
-444.79999 -1441.5 3063
-349.85715 -1475 3063
-234.2 -1472.9 3063
-153.57143 -1465 3063
-47.666668 -1486.0834 3063
25.833334 -1479.6666 3063
155.57143 -1479.1428 3063
232 -1492.7333 3063
417.20001 -1453.1 3063
554 -1448.8889 3063
636.625 -1475.8125 3063
1035.6 -1497 3063
1425.375 -1488.75 3063
1656 -1489.6666 3063
1788.8334 -1478.8334 3063
1808.5 -1477.5 3063
2060.7083 -1476.7916 3063
358.875 -1513.625 3077
405 -1504 3077
694 -1504 3077
745.88892 -1516.4445 3077
856.54547 -1531.2727 3077
947.40002 -1508.7333 3077
1064.5454 -1505.9091 3077
1147 -1520 3077
1246.5714 -1535.5714 3077
1447.2142 -1539.2858 3077
1651.7894 -1535.2106 3077
1840.875 -1563.5 3077
1912.9231 -1535.3846 3077
2051.5217 -1548.9131 3077
2773.5 -1507.5 3077
2864.6667 -1520.3334 3077
2950 -1554.5 3077
-726.8421 -1440.6842 3077
-630 -1435.8 3077
-547.20001 -1448.1 3077
-442.5 -1451.1 3077
-353.5 -1482 3077
-243.90909 -1473.7273 3077
-140.71428 -1466.5714 3077
-59 -1486.2 3077
56.142857 -1479 3077
157.11111 -1482 3077
244.75 -1489.4375 3077
358.27274 -1455.7273 3077
564 -1455 3077
649.33331 -1483.6666 3077
1437.4 -1487.6 3077
1651.2 -1491.8 3077
1785.75 -1485.5 3077
1825.25 -1485.5 3077
291 -1503 3091
369.375 -1514.375 3091
407 -1503 3091
697 -1503 3091
770.09998 -1518.7 3091
847.79999 -1529.6 3091
923.57141 -1515.7142 3091
1056 -1503 3091
1142.3334 -1517.9166 3091
1249.0667 -1537.0667 3091
1356 -1559.88 3091
1450.7222 -1540 3091
1636.4 -1542.6 3091
1754.5 -1560 3091
1841 -1554.7333 3091
1918.125 -1532.375 3091
2056.2 -1554.04 3091
2779 -1511 3091
2830.8 -1519.4 3091
2952.5 -1550.5 3091
3009 -1586.75 3091
-625 -1426.7778 3091
-563.70001 -1444.9 3091
-443.10001 -1448.9 3091
-385 -1482 3091
-232.71428 -1474 3091
-150.7 -1469.1 3091
-50.545456 -1490.9091 3091
39 -1485 3091
160 -1486 3091
245 -1485.8823 3091
345.10001 -1456.1 3091
417 -1459.3 3091
551.85712 -1449.4286 3091
665.83331 -1473.5834 3091
1454.5 -1492.5 3091
1666 -1493.2 3091
1788.5 -1489 3091
1832.5714 -1480.4286 3091
288.5 -1503 3105
355.63635 -1514.0909 3105
401 -1510 3105
735.92859 -1517.2858 3105
855 -1532.9333 3105
947.15387 -1514.5385 3105
1053.1666 -1505.3334 3105
1156.8 -1520.3 3105
1253.3334 -1531.2778 3105
1377.4546 -1543.3636 3105
1476.579 -1542.7368 3105
1624.3077 -1543.6923 3105
1743.1428 -1550.6428 3105
1837.4736 -1552.0526 3105
1920.0909 -1539.2727 3105
2063.4546 -1562.5454 3105
2777 -1510 3105
2853 -1525 3105
2933 -1543 3105
3002 -1568 3105
-620.5 -1424.9 3105
-561.65002 -1439.65 3105
-436.57144 -1453.1428 3105
-357.83334 -1486.8334 3105
-244.91667 -1476.3334 3105
-133.8 -1469.2 3105
-57.363636 -1491.8182 3105
30.714285 -1487 3105
175.42857 -1488 3105
257.35999 -1483.3199 3105
353.89999 -1458.8 3105
421.60001 -1449 3105
567 -1462.75 3105
664.6087 -1464.5217 3105
701.16669 -1462.8334 3105
1445 -1494 3105
1667 -1496 3105
1793 -1492 3105
1841.8334 -1484.6666 3105
367.64285 -1512.1428 3119
403 -1510 3119
752.77777 -1516.1111 3119
857.3125 -1529.8125 3119
942.875 -1516.3125 3119
1051.0909 -1508.5454 3119
1143.3125 -1516 3119
1248.5652 -1526.2609 3119
1349.6666 -1558.3334 3119
1464.375 -1544.375 3119
1528.25 -1564.5 3119
1622 -1555.4546 3119
1750.6666 -1551.4445 3119
1843.9656 -1555 3119
1922.5 -1544.7 3119
2071.9167 -1573 3119
2778 -1506 3119
2844 -1528 3119
2932 -1542.5 3119
3023.25 -1580.75 3119
-552.83331 -1440.6666 3119
-414.20001 -1465.6 3119
-341.42856 -1493 3119
-237.55556 -1475.4445 3119
-149.45454 -1474.2727 3119
-50.400002 -1494.3 3119
69.199997 -1489.4 3119
128.625 -1488 3119
251.91304 -1472.4348 3119
346.11111 -1471.4073 3119
564 -1453.625 3119
667.625 -1453.875 3119
709.36365 -1473 3119
1457 -1495 3119
1852.25 -1483.875 3119
-337 -1502 3133
-43 -1502 3133
381.75 -1515.6666 3133
746.71429 -1514.2142 3133
855.79999 -1526.5333 3133
935.72729 -1515.7273 3133
1055.5 -1510.75 3133
1159.3846 -1513.5385 3133
1240.3871 -1518.0646 3133
1353.2727 -1558 3133
1433.2858 -1513.2858 3133
1509.1 -1565.7 3133
1643.1428 -1538 3133
1760.2142 -1566.4286 3133
1844.9166 -1560.2222 3133
1919.7222 -1552.7778 3133
2897 -1538 3133
2941.3333 -1548.3334 3133
3027 -1580.3334 3133
-547.41669 -1442.25 3133
-448 -1457 3133
-361 -1493.2222 3133
-241 -1477.4286 3133
-131.7 -1461.65 3133
-46.714287 -1492 3133
26.857143 -1494 3133
180.66667 -1494 3133
259.64706 -1472.2941 3133
339.57895 -1457.4736 3133
562.66669 -1469 3133
657.86664 -1456.6666 3133
721.77777 -1477.1111 3133
1221 -1494 3133
1869.8334 -1485.25 3133
-338 -1501 3148
-53.833332 -1501 3148
41.5 -1501 3148
763.0769 -1513.3846 3148
865.75 -1528.375 3148
937 -1518.0834 3148
1047.5454 -1515.3636 3148
1168.421 -1508.7368 3148
1251.5333 -1510.7333 3148
1344.4166 -1560.5 3148
1443 -1515 3148
1753.8 -1553.6666 3148
1847.3143 -1560.3429 3148
1921.1333 -1532.4667 3148
2833.5 -1534.5 3148
2952 -1553.5 3148
3033 -1583 3148
-571 -1436 3148
-422.77777 -1460.4445 3148
-358.10001 -1491.8 3148
-251.5 -1482 3148
-128.76471 -1456.3235 3148
-47 -1492 3148
55.400002 -1494 3148
136.71428 -1494 3148
255.5 -1475.6428 3148
339.61905 -1447.3334 3148
654.29999 -1460.3 3148
727.81818 -1469.2727 3148
1197 -1494 3148
1219.4 -1494 3148
1867.1666 -1485.3334 3148
-342.60001 -1501 3162
-56.400002 -1501 3162
48.833332 -1501 3162
162.66667 -1501 3162
770.375 -1512 3162
853.85712 -1526 3162
947.46155 -1516.4615 3162
1043.3636 -1516 3162
1153.7 -1506.6 3162
1272.25 -1510.125 3162
1348.1538 -1564.2307 3162
1446 -1517 3162
1634.6154 -1556.6154 3162
1773.0625 -1563.8125 3162
1825.6666 -1553.0476 3162
1920.4286 -1546.0952 3162
2868.5 -1545 3162
2968.5 -1558.5 3162
3055 -1589.6666 3162
-539.22223 -1449.5555 3162
-435 -1454.25 3162
-374.33334 -1488 3162
-249.27272 -1482.9091 3162
-138.05882 -1454.4706 3162
-77.695656 -1470.6522 3162
4.5 -1493 3162
258.61539 -1469.3077 3162
335.22223 -1455.3889 3162
570.71429 -1469.8572 3162
659.16669 -1458 3162
735.22223 -1466.8889 3162
1225.8572 -1491 3162
1870.5 -1489.5 3162
-43 -1508 3177
37.666668 -1508 3177
782 -1515.3334 3177
862.77777 -1527.6666 3177
933.66669 -1517.6666 3177
1055.5 -1519 3177
1148.6666 -1509.5555 3177
1283 -1512.6666 3177
1337.5 -1560.1666 3177
1448.1666 -1525.3334 3177
1630.25 -1567.5 3177
1771.8788 -1546.0605 3177
1810.2727 -1558 3177
1950 -1515.3334 3177
2842.6001 -1531.8 3177
2939.6001 -1557.4 3177
3035 -1582 3177
-574.11108 -1439.1111 3177
-420.34784 -1450.174 3177
-367.13043 -1478.5217 3177
-232.88889 -1478.2222 3177
-148.60001 -1453.8 3177
-62.285713 -1481.7142 3177
55.200001 -1498.6 3177
132.33333 -1500 3177
246.63637 -1473.3636 3177
332.5 -1449.8 3177
572.33331 -1466.5555 3177
653.875 -1463.25 3177
741.36365 -1469.9091 3177
1189.5 -1500 3177
1231.9166 -1493.5834 3177
1886.6666 -1490.6666 3177
-43 -1508 3192
34.5 -1508 3192
155.5 -1508 3192
789.25 -1515 3192
850.75 -1528 3192
946.92859 -1519 3192
1047 -1522 3192
1139.2858 -1514 3192
1285 -1513.25 3192
1342.3846 -1557.5385 3192
1441.2222 -1537.2222 3192
1547 -1556.4286 3192
1655.7142 -1554.2858 3192
1776.7142 -1532.8572 3192
1827.25 -1521.5 3192
1959.5 -1515 3192
2834 -1525 3192
2959.3333 -1562.3334 3192
3061.6667 -1592 3192
-642.83331 -1430.3334 3192
-551 -1451.625 3192
-425.28571 -1443.4286 3192
-367.12 -1477.36 3192
-249.26666 -1484.6666 3192
-154.66667 -1456.2 3192
-51.454544 -1483.5 3192
64.153847 -1497.3077 3192
252.5 -1475.875 3192
332.42856 -1448.762 3192
582.44446 -1474.3334 3192
642.875 -1472.125 3192
748.57141 -1473.4286 3192
1195.5 -1496.5 3192
1224.1666 -1495.3334 3192
1881 -1500 3192
1955.7693 -1480.6154 3192
2772 -1496.5 3192
34.5 -1507 3207
109.5 -1507 3207
211 -1507 3207
580 -1507 3207
790.75 -1511 3207
846.58618 -1521.4482 3207
937.11108 -1518.8889 3207
1056.6666 -1524.6666 3207
1157.625 -1514.875 3207
1287.3334 -1512.3334 3207
1344.6666 -1552.9166 3207
1445.4 -1543.2 3207
1647.6666 -1573.5 3207
1754.875 -1527.625 3207
1836.75 -1522.25 3207
1968.5 -1514.6666 3207
2842.6667 -1527.3334 3207
2969.5 -1567 3207
3052 -1589.5 3207
-647.71429 -1430.8572 3207
-557.25 -1450.5 3207
-449.84616 -1454.1538 3207
-371.38889 -1475.2778 3207
-239.21428 -1473 3207
-158.91304 -1453.2609 3207
-53.411766 -1481.8823 3207
51.941177 -1496.2354 3207
106 -1500 3207
243.60001 -1471.5 3207
586.11108 -1476.8889 3207
665.33331 -1465.5 3207
762.80951 -1475.4762 3207
843.05127 -1483.8462 3207
1197 -1492 3207
1234.7778 -1492.8889 3207
1897 -1500 3207
1954.8948 -1482.7894 3207
2781 -1500 3207
-328 -1507 3222
-289.5 -1507 3222
144.25 -1513.125 3222
208.5 -1510.5 3222
583 -1507 3222
852 -1517.6 3222
949 -1524.3334 3222
1044.7778 -1529 3222
1158.5 -1515.2858 3222
1285.6666 -1509.3334 3222
1350.8334 -1553.75 3222
1453.1 -1543.6 3222
1565.625 -1566.125 3222
1750.875 -1532 3222
1836.1111 -1526 3222
2861 -1536.6666 3222
2995 -1575 3222
3032 -1582 3222
-654 -1435.5714 3222
-554.55554 -1458 3222
-438.16666 -1451.1666 3222
-364.66666 -1477.2667 3222
-242.64102 -1455.2821 3222
-165.73334 -1454.2667 3222
-54.07143 -1475.6428 3222
54.642857 -1494.4286 3222
106 -1499 3222
247 -1480.8 3222
643.27271 -1478.2727 3222
772.25 -1473.75 3222
831.83868 -1475.7742 3222
1195 -1499 3222
1246.25 -1493 3222
-317 -1506 3237
-287 -1506 3237
153.25 -1515 3237
206 -1514 3237
897 -1529 3237
935 -1519.5 3237
1043.9091 -1530.2727 3237
1166.2222 -1512.8889 3237
1295.5 -1510 3237
1358 -1554.6 3237
1446 -1554.8572 3237
1532.5 -1538.8334 3237
1762.7778 -1529.7778 3237
1829.8334 -1531.1666 3237
2705 -1506 3237
2867.3999 -1538 3237
2925 -1574 3237
3040.75 -1587.75 3237
-654.59998 -1436.4 3237
-552.75 -1460.5 3237
-454.25 -1458.6666 3237
-358.8125 -1481.25 3237
-239.20589 -1448.3529 3237
-169.27272 -1447.0454 3237
-52.400002 -1471.7 3237
52.5 -1494.5 3237
110.2 -1492.2 3237
248.36363 -1477.8182 3237
423.33334 -1455.3334 3237
651.40002 -1477.2 3237
762.36365 -1465.2727 3237
852.66669 -1469.8334 3237
1225.5 -1494.5 3237
3092 -1605 3253
-314 -1510.6666 3253
-281 -1506 3253
144.625 -1512.375 3253
207 -1509.5 3253
947.20001 -1518.8 3253
1046.4286 -1532 3253
1149.8182 -1522.4546 3253
1287 -1506 3253
1362.8889 -1556.6666 3253
1457 -1554.6 3253
1547.2 -1547 3253
1720.3334 -1544 3253
1844.1 -1532.5 3253
1921.6666 -1513.3334 3253
2726 -1513 3253
2851.5 -1525 3253
2966 -1582 3253
3046 -1590 3253
-660.14288 -1442.7142 3253
-561.79999 -1461.4 3253
-440.22223 -1450.5555 3253
-357.76923 -1478.3077 3253
-241.11111 -1450.1111 3253
-46.625 -1472.875 3253
46.454544 -1495.4546 3253
116.33334 -1487.4166 3253
248.625 -1477.25 3253
641.76923 -1479.5385 3253
762.66669 -1469 3253
853.29999 -1469.2 3253
909 -1498 3253
1244 -1495.2 3253
3091 -1605 3268
-312.66666 -1513 3268
-291.20001 -1508.2 3268
31 -1505 3268
173.16667 -1524 3268
204 -1512.5 3268
963.20001 -1522.5 3268
1058.2 -1535.2 3268
1145.9166 -1526.1666 3268
1247 -1505 3268
1340.1111 -1535.6666 3268
1531.6666 -1548.6666 3268
1753.875 -1543.5 3268
1837.2 -1534.4 3268
1925.4 -1517.2 3268
2692 -1505 3268
2762.25 -1519.125 3268
2844.3333 -1527.8334 3268
2971.3999 -1587.6 3268
3029.6667 -1591.6666 3268
-647.29999 -1444.7 3268
-549.18182 -1468.7273 3268
-467.16666 -1470.5 3268
-362.5 -1468.3 3268
-265.90475 -1454.2858 3268
-44.8125 -1469.9375 3268
68.714287 -1490.8572 3268
122 -1487 3268
252.89999 -1478.2 3268
437.5 -1455 3268
649.77777 -1475.3334 3268
752.72729 -1467.2727 3268
845.14288 -1465.5714 3268
906 -1497 3268
1247 -1497 3268
3091 -1605 3284
-314.33334 -1508.5 3284
30 -1505 3284
164 -1519.3 3284
203 -1510.5 3284
952.33331 -1517.5 3284
1037.5555 -1534.2222 3284
1139.4445 -1530.6666 3284
1253 -1505 3284
1355 -1543.8334 3284
1448.2858 -1573.2858 3284
1546.1428 -1549.8572 3284
1754.75 -1549.125 3284
1849.4 -1536 3284
1928.8 -1521.8 3284
2686 -1505 3284
2724.5 -1516 3284
2854.3333 -1530.6666 3284
2938.5 -1574.25 3284
3041 -1597 3284
-667 -1447 3284
-552.44446 -1469.7778 3284
-453 -1460.2222 3284
-330.20001 -1485.85 3284
-59.285713 -1458.381 3284
75 -1491.6666 3284
126.5 -1488.1666 3284
231.85715 -1481.7142 3284
451.5 -1461.1666 3284
648 -1483.8 3284
767.25 -1472 3284
843.85712 -1469.4286 3284
906 -1493 3284
1249 -1497 3284
3067 -1605 3300
27 -1507.2 3300
172.875 -1517 3300
202 -1504 3300
957 -1516.8 3300
1043.2727 -1536 3300
1146.6 -1531.3 3300
1252.5 -1506.6666 3300
1357.875 -1541.125 3300
1541.6666 -1553.3334 3300
1744.4 -1558.6 3300
1854.3846 -1535.0769 3300
1936.6666 -1522.3334 3300
2664.3333 -1504 3300
2734 -1520 3300
2866 -1535 3300
2925.3333 -1558.6666 3300
-649.54547 -1450 3300
-539.28571 -1481.1428 3300
-472 -1471.8 3300
-344.86667 -1475.3334 3300
-47.5 -1462.2222 3300
78.199997 -1492.2 3300
132.25 -1491 3300
253.55556 -1486.3334 3300
653.77777 -1476 3300
754.76923 -1472.7693 3300
846 -1471 3300
910.5 -1493 3300
2996 -1605 3316
30.714285 -1509.7142 3316
178.8 -1518.6 3316
203 -1504 3316
963.66669 -1516.1666 3316
1055 -1538.2 3316
1141.3 -1535 3316
1250 -1507.4445 3316
1359.5 -1539.875 3316
1549 -1555.5 3316
1760.125 -1558.5 3316
1863.4375 -1523.5938 3316
1935.4546 -1520.9091 3316
2654 -1504 3316
2732 -1519 3316
2887 -1543 3316
2939.3333 -1558.3334 3316
-642.25 -1451 3316
-546.90002 -1478 3316
-449.70001 -1464.6 3316
-347.10001 -1470.2 3316
-46.411766 -1458.0588 3316
76 -1493.3334 3316
126.6 -1491.2 3316
241.88889 -1484.4445 3316
654.22223 -1483.7778 3316
841 -1472.75 3316
919 -1496 3316
2995 -1605 3332
22.857143 -1507.5714 3332
176.5 -1513.6666 3332
204 -1503 3332
967.66669 -1511 3332
1040.5 -1536.1 3332
1148 -1536.75 3332
1249.4286 -1512.1428 3332
1346.2222 -1532 3332
1549.4546 -1555.8182 3332
1753.1428 -1566.8572 3332
1855.826 -1526.5217 3332
1933.7646 -1525.4117 3332
2678.5 -1511 3332
2746.6001 -1528.4 3332
2944.5 -1567.5 3332
-650.57141 -1456 3332
-543.29999 -1482.4 3332
-471.33334 -1473.3334 3332
-341.375 -1476 3332
-45.25 -1456.4166 3332
47.799999 -1493.6 3332
116 -1489.75 3332
253.75 -1488.625 3332
445.14285 -1469.8572 3332
646.81818 -1475.4546 3332
844.125 -1472 3332
904 -1495 3332
33.285713 -1510.2858 3348
166.83333 -1513 3348
963.71429 -1508.1428 3348
1033.4615 -1530.9231 3348
1122.6 -1543.6 3348
1242 -1518 3348
1363.8334 -1539.3334 3348
1556.1818 -1551.1818 3348
1768.2858 -1562.2858 3348
1835.4546 -1529 3348
1945 -1534 3348
2676 -1506.5 3348
2726.6667 -1523.3334 3348
2817 -1550 3348
2963.6667 -1566.6666 3348
-730.59998 -1451.2 3348
-650.57141 -1458 3348
-535.22223 -1481.2222 3348
-468.57144 -1473.4286 3348
-347.10001 -1475.8 3348
-44.727272 -1458.4546 3348
54.200001 -1493.4 3348
126 -1495 3348
244.125 -1490 3348
444.5 -1465.5 3348
844.375 -1479 3348
36.444443 -1509.1111 3365
171.66667 -1510.8889 3365
277 -1502 3365
953.55554 -1508.2222 3365
1045.8462 -1532.7693 3365
1152 -1543.4546 3365
1231.1666 -1526 3365
1342.1111 -1531.3334 3365
1449.9231 -1575.6923 3365
1560.0476 -1554.4762 3365
1609.1428 -1556.4286 3365
1764.3334 -1564.4166 3365
1834.4667 -1530.2667 3365
2689 -1506 3365
2742.2 -1529.2 3365
2843.25 -1556 3365
2956.3333 -1565.6666 3365
3005 -1589 3365
-740.33331 -1441.8334 3365
-651.9231 -1457.4615 3365
-542.125 -1478 3365
-449.29999 -1468.6 3365
-314 -1476.3334 3365
-41.333332 -1458.5555 3365
8.75 -1490.5 3365
111 -1494 3365
240.5 -1488.75 3365
438.33334 -1464.5555 3365
845.58331 -1477.5834 3365
55.333332 -1507.1666 3381
171.125 -1512.5 3381
286 -1502 3381
457 -1502 3381
679 -1502 3381
959.33331 -1508.6666 3381
1048.5714 -1531.4286 3381
1147 -1543 3381
1262.2 -1523.4 3381
1359.8334 -1537 3381
1451.3077 -1573 3381
1537.0869 -1557 3381
1618.3334 -1554.3334 3381
1766 -1557 3381
1830.8572 -1534.3572 3381
2735.1667 -1525.1666 3381
2868.75 -1563 3381
2936 -1566.3334 3381
3011.5 -1581 3381
-743.11108 -1448.6666 3381
-646.71429 -1455.7142 3381
-547.90912 -1480.1818 3381
-480.39999 -1476.4 3381
-355.22223 -1482.4445 3381
-158.33333 -1451.3334 3381
-42.666668 -1457.3334 3381
34.111111 -1478.5927 3381
108 -1494 3381
215 -1494 3381
447.66666 -1468.2222 3381
842.5 -1475.6 3381
59.285713 -1504.4286 3398
152 -1510.6 3398
266 -1501 3398
451 -1501 3398
668.25 -1501 3398
954.63635 -1511.1818 3398
1049 -1528.4286 3398
1144.0769 -1547.1538 3398
1240.2222 -1534.7778 3398
1348 -1533.8 3398
1465 -1571 3398
1531.25 -1559 3398
1652.0667 -1549 3398
1742.1305 -1531.2609 3398
1827 -1537.3636 3398
2745 -1523.6666 3398
2815 -1553 3398
2983 -1573 3398
3039 -1587.4 3398
-658.5 -1454 3398
-542.09088 -1479.9091 3398
-435.66666 -1471.6666 3398
-344.20001 -1481.8 3398
-258 -1449.8 3398
-54 -1458.3334 3398
56.42857 -1479.6666 3398
104 -1493 3398
252 -1493 3398
749.76471 -1468.5294 3398
902 -1493 3398
1719 -1493 3398
153.8 -1513.8 3415
245 -1503 3415
305 -1501 3415
465 -1505 3415
682 -1503.6666 3415
953.11108 -1510.7778 3415
1049.125 -1524 3415
1148.8462 -1546.5385 3415
1227 -1542.3334 3415
1379 -1542.3334 3415
1456.0909 -1567.1818 3415
1536.7142 -1558.1428 3415
1663.48 -1547.4 3415
1750.5454 -1524.6364 3415
1820 -1526.7391 3415
2751.2856 -1525 3415
2833 -1561 3415
3046 -1583.2858 3415
3319.6001 -1577.8 3415
-738.66669 -1452.3334 3415
-656.5238 -1445.381 3415
-551 -1481.3636 3415
-465.28571 -1479.2858 3415
-357 -1483 3415
-156.33333 -1458.3334 3415
-46 -1461 3415
71.400002 -1480.2 3415
109 -1493 3415
434.60001 -1465.8 3415
906 -1493 3415
165 -1517 3432
264.5 -1508 3432
456 -1508 3432
685 -1508 3432
960.33331 -1514 3432
1060.0526 -1521.8948 3432
1135.125 -1547 3432
1274.6 -1535.2 3432
1352.4286 -1536.5714 3432
1446.25 -1562.6666 3432
1541.2858 -1558.5714 3432
1667.4117 -1549.7646 3432
1741.1333 -1552.9333 3432
1814.7778 -1521.3334 3432
2766.4285 -1527.4286 3432
2853.75 -1568.75 3432
3073.8 -1584.2 3432
3331 -1587 3432
-743.66669 -1445.25 3432
-550.44446 -1480.4445 3432
-461.375 -1479 3432
-353.60001 -1488 3432
-260.79999 -1456.8 3432
-144.5 -1466.6666 3432
-37 -1468 3432
51.666668 -1475.4667 3432
113 -1496 3432
299 -1500 3432
916.33331 -1497.3334 3432
1419.7778 -1496.4445 3432
156 -1517.6 3450
257.11111 -1508.8889 3450
466 -1508 3450
697 -1508 3450
966.66669 -1514.2222 3450
1059.375 -1516 3450
1147.3 -1540.5333 3450
1237 -1550.8572 3450
1364.875 -1540 3450
1429.1936 -1537.4193 3450
1549.4 -1561.8 3450
1657.2 -1549.2667 3450
1734 -1565.6666 3450
2779.5 -1526 3450
2827.6001 -1556.8 3450
2907 -1589 3450
3054.5557 -1587.2222 3450
3114.5 -1590 3450
3353.1001 -1583.4 3450
-727.79999 -1443.9 3450
-557.46155 -1454.0769 3450
-454.625 -1484 3450
-355.44446 -1491.1111 3450
-262.14285 -1459 3450
-128 -1471.5 3450
-55 -1463.25 3450
66.599998 -1473.5333 3450
112 -1492 3450
452.125 -1479.75 3450
915 -1500 3450
1424.4286 -1495.4286 3450
3403.6667 -1607.6666 3467
170.42857 -1522.7142 3467
262 -1509.2858 3467
468.5 -1507 3467
960.66669 -1511.4445 3467
1070.9091 -1511.4546 3467
1139.0358 -1527.8214 3467
1246.1818 -1547.2727 3467
1353.7142 -1540 3467
1447.3077 -1549.4615 3467
1544.9091 -1562.5454 3467
1654.9584 -1542.6666 3467
1724.375 -1572.5 3467
2791 -1528 3467
2847.3333 -1561.4445 3467
2962 -1597 3467
3048.8889 -1592.5555 3467
3155.8696 -1583.9131 3467
3352.4285 -1585 3467
3403.6667 -1594.3334 3467
-553.46155 -1462.9231 3467
-459.22223 -1483 3467
-348.20001 -1490.2 3467
-249.16667 -1459.5 3467
-180 -1472.3334 3467
-48.142857 -1466.5714 3467
65.090912 -1469.7273 3467
119.66666 -1460.7222 3467
294 -1495 3467
910.40002 -1492.6 3467
1426.5 -1495 3467
2973.3333 -1605 3485
3002 -1605 3485
3433.8 -1616.4 3485
139.75 -1517 3485
248.5 -1513.4 3485
471 -1507 3485
965.58331 -1510.3334 3485
1054.1818 -1512.0909 3485
1158.9546 -1518.6818 3485
1231.1538 -1542.8462 3485
1372.2727 -1539 3485
1466.7894 -1549.5264 3485
1545.8334 -1560.8889 3485
1650.4 -1541.9333 3485
1716.25 -1535.5 3485
2797 -1519 3485
2837.375 -1548.75 3485
2920 -1597 3485
3063 -1597 3485
3169.7368 -1578.4736 3485
