ply
format ascii 1.0
comment PCL generated
element vertex 2160
property float x
property float y
property float z
element camera 0
property float view_px
property float view_py
property float view_pz
property float x_axisx
property float x_axisy
property float x_axisz
property float y_axisx
property float y_axisy
property float y_axisz
property float z_axisx
property float z_axisy
property float z_axisz
property float focal
property float scalex
property float scaley
property float centerx
property float centery
property int viewportx
property int viewporty
property float k1
property float k2
end_header
2539.7778 -1514 2689
-730.59998 -1404.8 2689
-657 -1439.7646 2689
-566.38892 -1451.6389 2689
-464.20001 -1437.8 2689
-342.44446 -1454.1666 2689
-263.70587 -1446.4706 2689
-147.28572 -1452.2142 2689
-49.099998 -1447.2 2689
32.400002 -1483.9333 2689
154.125 -1466.875 2689
240.25 -1443.5 2689
359.44446 -1480.2222 2689
449.46155 -1482.0577 2689
550.65002 -1479 2689
645.85712 -1478.4286 2689
750.69232 -1438.1538 2689
817.5 -1487.5 2689
997 -1447 2689
1045.6666 -1467.3334 2689
1140.25 -1479.625 2689
1206 -1497 2689
-21.4 -1518.2 2700
23.928572 -1515.5714 2700
177.29411 -1523.8823 2700
466 -1514.1765 2700
869.28571 -1527.4286 2700
926.125 -1521.375 2700
1163.25 -1515.75 2700
1222 -1520.6 2700
1355.7273 -1526.5454 2700
1562 -1531.5 2700
2349.625 -1524.375 2700
2551.1333 -1512.6 2700
-809.66669 -1406 2700
-733 -1407 2700
-653.71429 -1420.7142 2700
-567.5 -1439.5909 2700
-452.13333 -1442.2 2700
-349.13333 -1453.2 2700
-259.05884 -1446.3529 2700
-143.85715 -1451.3572 2700
-49.299999 -1449.2 2700
33.846153 -1481.6154 2700
156.90909 -1472.6364 2700
360.14285 -1477.619 2700
427.25 -1463.9166 2700
545.84003 -1474.04 2700
637.66669 -1481.25 2700
748.11108 -1455.2222 2700
1017.5 -1484 2700
1144.7142 -1485 2700
1207.5 -1497 2700
24.916666 -1519.8334 2711
182.5 -1518.8 2711
204 -1503 2711
469.9375 -1528.75 2711
868.79999 -1529 2711
938.75 -1529.75 2711
1162.5 -1524.1666 2711
1226.75 -1528.25 2711
1352.75 -1529.3334 2711
1555.3928 -1537.5 2711
2350.7144 -1523.7142 2711
2550.625 -1510.375 2711
-819.5 -1404 2711
-757 -1412.125 2711
-646.625 -1413 2711
-556.92859 -1437 2711
-474.125 -1438.5 2711
-343.07693 -1454.5385 2711
-250 -1452.3529 2711
-143.18182 -1449.7273 2711
-50.384617 -1449.9231 2711
43 -1480.6 2711
177 -1481.125 2711
219.2 -1475 2711
369.38708 -1470.4193 2711
443.03571 -1464.8928 2711
551.53125 -1470.5312 2711
649.33331 -1480.5 2711
733.5 -1460 2711
814.75 -1453.75 2711
1006 -1452 2711
1123.25 -1464.75 2711
186 -1511.5 2721
870.57141 -1527.7142 2721
935.83331 -1530.8334 2721
1154.0834 -1521.75 2721
1217.4 -1510.8 2721
1364.5 -1526.875 2721
1559.8572 -1536.7142 2721
2237.1428 -1507.4286 2721
2347.0588 -1524.5883 2721
2559.5 -1507.5 2721
2609 -1542 2721
-815.5 -1409.5 2721
-725.77777 -1413.2222 2721
-661.22223 -1416.8889 2721
-565.09088 -1439.2727 2721
-436.69232 -1447.6154 2721
-342.72726 -1451.5454 2721
-265.5 -1440.7858 2721
-145.92308 -1452.4615 2721
-40.444443 -1452.8889 2721
39.375 -1479.75 2721
152.88889 -1473.1111 2721
235.39999 -1454.8 2721
362.94446 -1474.1666 2721
449 -1457.4166 2721
549.53333 -1464.8 2721
639.46155 -1481.4615 2721
738.83331 -1456.1666 2721
811 -1457.5 2721
1127.5 -1465.5 2721
2238.5 -1496 2721
37.25 -1514.75 2732
870 -1529.125 2732
939.66669 -1530.3334 2732
1175.4286 -1519.2858 2732
1239.2 -1529.8 2732
1349.4286 -1541 2732
1552.3077 -1536.1538 2732
1604.4 -1551.6 2732
1960.75 -1519.5 2732
2245.0908 -1521.8636 2732
2337.9707 -1526.6765 2732
2556.4614 -1506.1538 2732
2615.75 -1535.25 2732
-812.5 -1415 2732
-747.22223 -1417.5555 2732
-657.83331 -1416.1666 2732
-555.9231 -1441 2732
-447.83334 -1446.0834 2732
-358.15384 -1452.4615 2732
-246.64706 -1455 2732
-157.25 -1461 2732
-59.777779 -1450.5555 2732
38.111111 -1480.4445 2732
161.81818 -1474.0909 2732
212 -1482.5 2732
358.53333 -1468.4 2732
453.15384 -1460.8462 2732
556.47369 -1462.1578 2732
642.72729 -1483.2727 2732
743.33331 -1450.4445 2732
818 -1440.5 2732
1010 -1463.5 2732
1135.25 -1471.5 2732
2244.3333 -1495 2732
860.40002 -1524.8 2743
1171.75 -1519 2743
1238.3334 -1526.1666 2743
1360 -1536.5555 2743
1427.3 -1553.5 2743
1554.1538 -1536.5385 2743
1615.125 -1549.625 2743
1971.1904 -1530.238 2743
2031 -1552.0588 2743
2260.1521 -1539.8478 2743
2328.6001 -1536.4572 2743
2568 -1505.2 2743
2624.7144 -1531.7142 2743
-818 -1411.3334 2743
-726 -1415.25 2743
-659.33331 -1415.6666 2743
-554.13336 -1441.6666 2743
-458.22223 -1445.5555 2743
-358.73914 -1441.7391 2743
-256.82352 -1443.8235 2743
-138.58333 -1451.4166 2743
-30.571428 -1461 2743
34.42857 -1476.4286 2743
156.2 -1479.6 2743
219.25 -1478.75 2743
357.33334 -1465.6666 2743
450.53845 -1458.7693 2743
553.5 -1462.2858 2743
645.16669 -1481.3334 2743
731 -1475.75 2743
823.66669 -1451.3334 2743
1017 -1488 2743
1135.3334 -1469.3334 2743
2253.3333 -1495 2743
38.42857 -1523 2754
870.20001 -1530.8 2754
935 -1538.875 2754
1033.2 -1526.6 2754
1178.5 -1513.75 2754
1231.5 -1530.1666 2754
1352.8572 -1544.2858 2754
1534.5454 -1552.0909 2754
1626.375 -1553.5 2754
1979.1578 -1542.7894 2754
2038.6552 -1548.7241 2754
2260.25 -1535.4445 2754
2320.7346 -1539.8776 2754
2583.5 -1505.5 2754
2640.5 -1544.75 2754
-815 -1416.6666 2754
-741.72729 -1416.7273 2754
-662.20001 -1419.9 2754
-551.44446 -1452.7778 2754
-455.54544 -1448 2754
-362.17242 -1439.6552 2754
-246.23077 -1453.7693 2754
-148.07143 -1456.2142 2754
-48.785713 -1457.5 2754
34.42857 -1477 2754
154.57143 -1479 2754
235 -1471.4286 2754
358.5 -1467.4 2754
453.625 -1462.875 2754
540.125 -1467 2754
648.70001 -1484.2 2754
735.42859 -1473.4286 2754
1016.75 -1479.75 2754
1139 -1472.6 2754
2262.3333 -1494 2754
50 -1507 2765
875.28571 -1536.2858 2765
1036.3334 -1537.3334 2765
1180 -1516 2765
1243.7 -1529.4 2765
1458.1578 -1554.579 2765
1552.6 -1546.7333 2765
1637.5 -1557.6666 2765
1972.75 -1538.8334 2765
2060.0625 -1547.125 2765
2244.25 -1539.25 2765
2331.375 -1530.3125 2765
2589 -1507 2765
2636.5715 -1528 2765
-808.40002 -1418.8 2765
-742.66669 -1418.3334 2765
-655.375 -1420.25 2765
-554.0769 -1446.5385 2765
-449.76923 -1450.4615 2765
-352.25 -1443.5 2765
-256.69232 -1446.5385 2765
-144 -1454.5834 2765
-49.272728 -1455.3636 2765
32.799999 -1480.7 2765
158.44444 -1481 2765
229.25 -1477.5 2765
373.5 -1464.5 2765
448.29999 -1458.3 2765
548.59998 -1467 2765
648.09088 -1483.7273 2765
737.42859 -1474.2858 2765
834 -1455 2765
1015.6 -1484.6 2765
1141.1666 -1468 2765
2271.2856 -1497.4286 2765
866.16669 -1531 2777
927.83331 -1543 2777
1040.6 -1531.6 2777
1187.75 -1516.75 2777
1253.5 -1544.375 2777
1360 -1553 2777
1477.7273 -1555.7576 2777
1641.8334 -1556 2777
1975.625 -1546 2777
2054.5 -1544.8125 2777
2107.1001 -1569.6 2777
2244.4546 -1540.0909 2777
2334 -1508.3334 2777
2635.1001 -1523.1 2777
-813 -1425.5 2777
-746.84613 -1418.8462 2777
-660.79999 -1423.6 2777
-550.9231 -1450.8462 2777
-458.27274 -1451.8182 2777
-357.16217 -1448.4054 2777
-245.35715 -1454.7142 2777
-154.125 -1462 2777
-59.916668 -1453.6666 2777
28.666666 -1474.8334 2777
111.33334 -1487 2777
213 -1489.3334 2777
359.44446 -1472.1111 2777
455.5 -1467.8334 2777
541.25 -1472.75 2777
651.75 -1486.75 2777
734.66669 -1485 2777
838 -1458 2777
1024 -1481 2777
1145 -1467.6666 2777
2281.2 -1496.4 2777
60.333332 -1510.6666 2788
877.20001 -1535.2 2788
1031.5834 -1546.6666 2788
1188 -1519 2788
1254.4445 -1534.5555 2788
1463.8422 -1543.3158 2788
1536.7778 -1544.9445 2788
1975.6666 -1546.75 2788
2059.1538 -1535 2788
2117 -1556 2788
2249.7693 -1543.5385 2788
2340 -1506 2788
2655.1111 -1542.5555 2788
-808.25 -1424.5 2788
-761.70587 -1418.2354 2788
-658.42859 -1426.7142 2788
-553.29999 -1456 2788
-463 -1453.8334 2788
-336.94736 -1431.8948 2788
-252.55556 -1450 2788
-152.3 -1462.6 2788
-43 -1461.0714 2788
31.111111 -1470.6666 2788
152.46153 -1487 2788
247.5 -1477 2788
358 -1478 2788
450.63635 -1464.2727 2788
548.375 -1472 2788
651.91669 -1485.6666 2788
745 -1472.4166 2788
844.25 -1454.25 2788
1018 -1493.5 2788
1150 -1469.8572 2788
2274 -1500 2788
2351.8181 -1476.9546 2788
60.5 -1511.1666 2799
870.75 -1536.125 2799
1189 -1519 2799
1241.7778 -1531.1111 2799
1464.3125 -1540.75 2799
1544.4286 -1540.0714 2799
1645.625 -1560.875 2799
1973 -1555.1666 2799
2052.5715 -1535 2799
2128.9375 -1557.875 2799
2252.4707 -1551 2799
2326 -1506 2799
2651.6365 -1521.8182 2799
2700 -1578 2799
-806 -1433.3334 2799
-761.71997 -1419 2799
-668.5 -1426.75 2799
-551 -1453.7778 2799
-462.5 -1456.5 2799
-319.48148 -1425.5186 2799
-255.64285 -1448.3572 2799
-146 -1459.7273 2799
-48.714287 -1458.2142 2799
34.809525 -1467.6666 2799
141.5 -1493 2799
223.8 -1490.2 2799
367.28571 -1477.4286 2799
457.83334 -1469.5 2799
550.42859 -1476.5714 2799
650.09088 -1485.5454 2799
754.66669 -1475 2799
852.5 -1445.75 2799
1029.6666 -1486 2799
1155 -1466.2 2799
2292.6667 -1499 2799
62.714287 -1512.2858 2811
872 -1530.1428 2811
1184.5 -1512.5 2811
1252.3334 -1538.3334 2811
1458.1818 -1541.6364 2811
1549.2142 -1543.3572 2811
1977 -1559.6364 2811
2058.375 -1546 2811
2143.5264 -1561.1052 2811
2254.3635 -1555.1818 2811
2336 -1506 2811
2661.7144 -1518.8572 2811
2709 -1569.3334 2811
-759.22223 -1415.3334 2811
-664.20001 -1433.1 2811
-553.18182 -1458.1818 2811
-478.25 -1452.75 2811
-254.14285 -1448.381 2811
-148.2 -1462.2 2811
-49.357143 -1458.0714 2811
42.052631 -1471.8422 2811
153.36363 -1492 2811
257.5 -1482.5 2811
360.66666 -1483.6666 2811
444.66666 -1469.3334 2811
548.09998 -1479.4 2811
643.59998 -1484.5 2811
736.59998 -1487.7 2811
856.25 -1472.5 2811
1029.3334 -1492.3334 2811
1159.75 -1472.625 2811
63.555557 -1509.6666 2823
881.70001 -1533.3 2823
913.79999 -1539.3 2823
1196 -1522 2823
1262.1818 -1534.9091 2823
1462.0714 -1546.6428 2823
1547.2858 -1542.8572 2823
1653.375 -1559.125 2823
2040.8 -1542.6 2823
2159.8462 -1564.2693 2823
2255.0293 -1540.8529 2823
2306 -1505 2823
2679 -1522 2823
2706.5 -1548.5 2823
-754.83331 -1419.1666 2823
-654.29999 -1434.7 2823
-545.44446 -1460.5555 2823
-469 -1459 2823
-247.5 -1450.1428 2823
-158.25 -1469.875 2823
-47.8125 -1462.375 2823
46.5 -1471.0909 2823
121 -1494.8 2823
237.25 -1492.25 2823
380.60001 -1484.2 2823
461.11111 -1474 2823
543.75 -1484.25 2823
666.33331 -1490.0834 2823
754.08331 -1471.8334 2823
862 -1448 2823
1163.6 -1468.4 2823
67 -1506.5 2834
223.5 -1505 2834
722 -1505 2834
883.91669 -1527.4166 2834
942.375 -1546.0625 2834
1194.5 -1511.5 2834
1274.7 -1535.9 2834
1457.9 -1546.15 2834
1551.5385 -1542.5385 2834
1662.125 -1561.125 2834
2069.6667 -1549 2834
2161 -1553.4706 2834
2235.9219 -1562.6875 2834
2319 -1505 2834
2690.5 -1518 2834
2715.25 -1552.75 2834
-760 -1419.5 2834
-665 -1435 2834
-557.125 -1458.875 2834
-482.25 -1456.25 2834
-240 -1454.7 2834
-147.81818 -1464.7273 2834
-51.6875 -1458.125 2834
55.888889 -1472.8518 2834
141.3125 -1495.0625 2834
268.25 -1488 2834
373 -1487.8334 2834
448 -1475 2834
564.875 -1482.125 2834
661.59998 -1489.8 2834
760 -1469.3 2834
869.66669 -1455.6666 2834
1044.5 -1491.5 2834
1179.6666 -1482.6666 2834
147 -1504 2846
216.66667 -1504 2846
735 -1504 2846
883.95001 -1529 2846
928.57141 -1540.5714 2846
1246.4286 -1534 2846
1329.8235 -1556.2354 2846
1457 -1544.05 2846
1548.4445 -1541.4445 2846
1643.4 -1557.7 2846
2045.1666 -1547.5 2846
2157.1667 -1547.5834 2846
2236 -1549.1945 2846
2306.3333 -1506.3334 2846
2699 -1504 2846
2722.6001 -1545.1 2846
-760.66669 -1419.6666 2846
-664.29999 -1438.4 2846
-550.85712 -1465.2858 2846
-459.33334 -1442.3334 2846
-236.38461 -1460.7693 2846
-155.41667 -1469.25 2846
-56.153847 -1457.4615 2846
52.411766 -1466.2941 2846
131.11111 -1493.3334 2846
271 -1491 2846
361 -1494.5 2846
462.60001 -1480.4 2846
532.44446 -1491.7778 2846
660.22223 -1489.4445 2846
739.70001 -1485.7 2846
872.59998 -1457.8 2846
1049 -1494.5 2846
1188 -1484.4 2846
160.16667 -1504 2858
230.25 -1509.25 2858
741.5 -1504 2858
888 -1515 2858
1240.375 -1537.25 2858
1450.6154 -1546.7693 2858
1552.1818 -1542.9091 2858
1645.125 -1559.375 2858
2055.3999 -1553.8 2858
2174.4546 -1544.7273 2858
2242.0688 -1540.3793 2858
2306.3999 -1506.8 2858
2732.4285 -1535.5714 2858
-773.16669 -1424.3334 2858
-653.85712 -1441.8572 2858
-538 -1464.5714 2858
-239.85715 -1451.2858 2858
-156.10001 -1470.6 2858
-47.272728 -1460.7273 2858
53 -1464.3334 2858
117.2 -1490.6 2858
269 -1497 2858
376 -1494.2858 2858
451 -1479.3334 2858
547.59998 -1490.6 2858
660.52942 -1489.1765 2858
752.46667 -1475.8 2858
878 -1447.4286 2858
1060 -1491 2858
1172.8 -1474.2 2858
1201 -1491 2858
166.375 -1504.75 2870
227.16667 -1510.1666 2870
526 -1504 2870
744.75 -1504 2870
891.33331 -1510.3334 2870
1030.6666 -1540.5 2870
1245.8334 -1533.1666 2870
1449.2667 -1548.8 2870
1550.5 -1544 2870
1664 -1564 2870
2045.25 -1556.625 2870
2149.6667 -1543.7778 2870
2248.625 -1532.7188 2870
2308.75 -1505.5 2870
2750.3333 -1540.5 2870
-754 -1427.2727 2870
-665.61108 -1440.2778 2870
-554.57141 -1472 2870
-469.75 -1451.25 2870
-233.61539 -1454.7693 2870
-148.45454 -1468.0909 2870
-46.153847 -1458.5385 2870
49.5 -1463.2142 2870
120.66666 -1492.3334 2870
286.75 -1493.5 2870
370.75 -1495.25 2870
435 -1483 2870
544.44446 -1494.6666 2870
668 -1490 2870
743.875 -1486.25 2870
1058 -1497 2870
1182.5 -1477 2870
172.25 -1504.75 2882
238.55556 -1510.7778 2882
372.33334 -1503 2882
543.66669 -1503 2882
650 -1503 2882
738 -1503 2882
893 -1503 2882
932.25 -1540.25 2882
1030.3636 -1542.3636 2882
1242.6666 -1536.8334 2882
1444.6364 -1552.9091 2882
1547.9091 -1544.9091 2882
1641.5834 -1560.5 2882
2029.2858 -1559 2882
2157 -1545.2222 2882
2247.375 -1531 2882
2303.5 -1503 2882
2761 -1530.1111 2882
-803 -1415 2882
-745.42859 -1429.7142 2882
-675.40002 -1435.3 2882
-548.29999 -1469.7 2882
-489 -1465.5 2882
-234.82353 -1449.7646 2882
-140.66667 -1464.8334 2882
-56 -1458.0625 2882
51 -1462.8667 2882
116.66666 -1489.6666 2882
285 -1496 2882
399 -1490 2882
451.81818 -1485.5454 2882
524.5 -1493 2882
642.125 -1493 2882
760 -1486 2882
890.83331 -1459 2882
1069 -1496 2882
1207.5 -1493 2882
168.2 -1504.8 2894
236.2 -1511.9 2894
369 -1503 2894
541 -1503 2894
655.5 -1503 2894
941 -1545.6428 2894
1254.375 -1538.875 2894
1447 -1554.8462 2894
1565.2858 -1549 2894
1637.125 -1561.125 2894
1958.3462 -1570.1154 2894
2037.8 -1559.7 2894
2147.5 -1552.1666 2894
2250.6667 -1531.7778 2894
2309.3333 -1505 2894
2775.1428 -1535.5714 2894
-763.79999 -1432.9 2894
-650.5 -1444.875 2894
-556.28571 -1475.4286 2894
-467 -1455.3334 2894
-228.7619 -1446 2894
-146.72728 -1468.5454 2894
-49.235294 -1457.8823 2894
53.400002 -1467.1 2894
119.77778 -1488.2222 2894
394 -1496 2894
453.16666 -1486.6666 2894
552.25 -1494.25 2894
656.28571 -1494 2894
747.4375 -1485.1875 2894
904 -1451.5 2894
1175.3334 -1482 2894
1209 -1492.5 2894
171.11111 -1503.5555 2907
248.10001 -1511.1 2907
358 -1506.2 2907
562.16669 -1505.5 2907
655.33331 -1502 2907
943.72729 -1545.9091 2907
1042 -1543.9166 2907
1252.9 -1535.8 2907
1355.3846 -1559.4615 2907
1445.1111 -1557.7778 2907
1542.8182 -1546.8182 2907
1647.5454 -1563.3636 2907
1966.6154 -1567.6923 2907
2043.5 -1562.8334 2907
2152.9092 -1557.8182 2907
2251.0769 -1538 2907
2324.3333 -1504.3334 2907
2791.3845 -1537.6154 2907
-806.5 -1417.5 2907
-737.28571 -1435 2907
-657.40002 -1445.8 2907
-553.54547 -1476.9091 2907
-445.5 -1451 2907
-222.95238 -1450.5714 2907
-149.2 -1465.1 2907
-41.266666 -1458.2 2907
47.285713 -1462.5714 2907
126 -1486.9 2907
396 -1496 2907
434.39999 -1489 2907
512 -1496 2907
642.83331 -1496 2907
768 -1485.5 2907
911.5 -1462.6666 2907
1194 -1489 2907
1215 -1496 2907
-190 -1502 2919
168.25 -1502.875 2919
248.83333 -1513.6666 2919
384 -1509 2919
536.5 -1507.25 2919
650 -1502 2919
945 -1543 2919
1039.6364 -1549.7273 2919
1261.6666 -1542.3334 2919
1349.8 -1550 2919
1448.0667 -1558 2919
1558.2 -1552.8 2919
1659.4 -1563.3 2919
1953.5714 -1568.6428 2919
2038.3 -1564.4 2919
2166 -1554.4615 2919
2246.2856 -1540 2919
2322.5715 -1510 2919
2791.5 -1505.5 2919
2807.25 -1541.25 2919
-750.44446 -1438.4445 2919
-650.875 -1450.375 2919
-538.5 -1475.3334 2919
-419.5 -1433 2919
-215.23077 -1450.1538 2919
-155.27272 -1462.5454 2919
-51.153847 -1456.1538 2919
49.727272 -1462.5454 2919
145.125 -1487.5625 2919
398 -1495 2919
451.14285 -1490.5 2919
505.75 -1493.25 2919
650.16669 -1495 2919
747.75 -1492.0834 2919
920 -1467.625 2919
1206 -1495 2919
1425 -1495 2919
-187.5 -1502 2932
190.66667 -1504.3334 2932
241.66667 -1510.5714 2932
371.25 -1512.75 2932
560.40002 -1511.4 2932
660.25 -1502.875 2932
948.16669 -1543.4166 2932
1043.5 -1546.9 2932
1254.2222 -1533.1111 2932
1345.6 -1548.6 2932
1434.2307 -1530.3077 2932
1549.5714 -1552 2932
1652.5333 -1564.2667 2932
1949.375 -1573.125 2932
2050.8572 -1564.8572 2932
2160.8 -1562.1 2932
2244.3333 -1543.9333 2932
2334.3999 -1510 2932
2794 -1502 2932
2821.1111 -1536.8889 2932
-811.40002 -1419 2932
-753.5 -1445.25 2932
-652.88892 -1454.8889 2932
-542.42859 -1478.5 2932
-464 -1469.6666 2932
-216.18182 -1455.3636 2932
-156.29411 -1463.4117 2932
-45.363636 -1455.5454 2932
56.07143 -1467.6428 2932
159.75 -1484.25 2932
201.75 -1488 2932
454 -1486.8334 2932
504.39999 -1481 2932
664.33331 -1495 2932
762.5 -1488 2932
921.72729 -1462.8182 2932
1431.6666 -1495 2932
2377.5 -1484.5 2932
-188.5 -1501 2944
246.2 -1507.3 2944
363.79999 -1513.6 2944
559.28571 -1514 2944
642.75 -1502.75 2944
736.375 -1501 2944
955.28571 -1530.1428 2944
1043.8334 -1543 2944
1262.9091 -1538.5454 2944
1335.4445 -1549.7778 2944
1446.9524 -1534.9048 2944
1541.125 -1556.875 2944
1644 -1563.7 2944
1958.25 -1564 2944
2047.4615 -1567.8462 2944
2167.8181 -1563.6364 2944
2254.9167 -1547.25 2944
2334.3333 -1513.8334 2944
2833 -1549.3636 2944
-812.59998 -1418 2944
-753.25 -1444.25 2944
-656.54547 -1454.4546 2944
-556.18182 -1482.5454 2944
-420 -1439 2944
-166.25 -1465.1786 2944
-35.666668 -1453.2 2944
32.5 -1456.1875 2944
148.76923 -1479.4615 2944
221.8 -1491.2 2944
458.27274 -1484.1364 2944
513 -1483 2944
668.20001 -1492.6 2944
788 -1490.5 2944
940.77777 -1474 2944
1434 -1494 2944
1959 -1494 2944
2380.5 -1487 2944
-182.5 -1501 2957
256.29999 -1506.4 2957
373.55554 -1511.3334 2957
537.79999 -1511.6 2957
648.71429 -1503.8572 2957
750 -1501 2957
963.35297 -1516.5294 2957
1029 -1525.7368 2957
1194 -1508 2957
1259.7858 -1533.7142 2957
1352.3636 -1553.4546 2957
1440.3199 -1541.3199 2957
1572 -1559.5 2957
1652 -1564 2957
1963.7812 -1539.4062 2957
2063.7407 -1541.9259 2957
2153.9131 -1539.6957 2957
2251.9473 -1546.0526 2957
2343.375 -1513.5 2957
2839.8 -1519.8 2957
-811.75 -1420.5 2957
-753 -1450 2957
-637 -1467.75 2957
-547.23077 -1477.8462 2957
-460 -1462.5 2957
-165.78947 -1465.4474 2957
-48.64706 -1453.2354 2957
48 -1462.7693 2957
149 -1479.4166 2957
243.5 -1490.5 2957
451.11111 -1482.7222 2957
518.66669 -1480 2957
669.33331 -1494 2957
791.66669 -1491.6666 2957
950.22223 -1473 2957
1007 -1494 2957
1440.5 -1494 2957
1971 -1494 2957
356 -1518.6666 2970
565 -1524.5 2970
631.5 -1507 2970
741.79999 -1507 2970
979.75 -1535.5 2970
1036.9736 -1536.8422 2970
1277.4 -1536.4 2970
1335.0667 -1556.9333 2970
1452.1 -1547.6 2970
1560.3334 -1563 2970
1637.125 -1569.125 2970
1972.2554 -1546.0212 2970
2056.6033 -1534.8889 2970
2160.5 -1543.5 2970
2249 -1546.9 2970
2338.1819 -1522.2727 2970
2858 -1540 2970
-811.66669 -1422.5 2970
-756.25 -1449.25 2970
-656.25 -1461.5 2970
-546.94116 -1473.7059 2970
-431 -1458 2970
-147.5 -1453 2970
-45.599998 -1451 2970
39.333332 -1457.5333 2970
155.90909 -1480.2727 2970
254.75 -1498.25 2970
349 -1500 2970
449.84616 -1480.6154 2970
518.79999 -1483.2 2970
669.85712 -1496 2970
788 -1495.3334 2970
816 -1456 2970
960.09088 -1479.6364 2970
1013.3333 -1495.3334 2970
1446.5 -1500 2970
1980 -1495.625 2970
2809 -1496.5 2970
358.875 -1518.375 2983
552.83331 -1515.1666 2983
626.33331 -1514 2983
739.5 -1509.3334 2983
981.64703 -1554.3529 2983
1043 -1540.3529 2983
1279.25 -1535 2983
1336.6111 -1552.5 2983
1447.7931 -1551.6552 2983
1561 -1565.625 2983
1646.4 -1566.2667 2983
1954.0769 -1550.0769 2983
2039.8 -1540.425 2983
2153.8223 -1552.8889 2983
2256.1538 -1546.3077 2983
2334.8889 -1523.7222 2983
2873.5 -1549 2983
-807 -1428 2983
-761.77777 -1447.8889 2983
-658.625 -1464.125 2983
-539.70453 -1441.7727 2983
-450.66666 -1465 2983
-237.55556 -1433.8889 2983
-144.41667 -1450.4166 2983
-46.5625 -1450.5625 2983
43.5 -1458.5 2983
150.5 -1481.5 2983
254.16667 -1497.6666 2983
302 -1500 2983
442 -1482.5 2983
534.75 -1489.5 2983
670.20001 -1495.8 2983
792 -1495.3334 2983
817.66669 -1467.3334 2983
961.625 -1477.25 2983
1018.5 -1497.6666 2983
1452.5 -1500 2983
1988 -1483.4546 2983
2038.6471 -1482.7059 2983
240 -1506 2996
338 -1515.8 2996
401 -1506 2996
559.5 -1530.5 2996
649 -1511.25 2996
742.5 -1513 2996
1041.6364 -1554.3636 2996
1257.25 -1527 2996
1340.875 -1547.3125 2996
1442.7778 -1544.5927 2996
1571.8889 -1545.1555 2996
1618.1034 -1547.4482 2996
1958.5 -1542.5 2996
2035.3158 -1555.6316 2996
2158.5173 -1566.3448 2996
2263.3635 -1535.5909 2996
2330.2144 -1519.8572 2996
2869 -1524.6666 2996
-808.40002 -1431.8 2996
-783.8125 -1441.25 2996
-645 -1473.8 2996
-536.88892 -1440.9778 2996
-427 -1443 2996
-159.125 -1449.125 2996
-50.222221 -1451.5555 2996
44.75 -1457.4375 2996
138.84616 -1480.1538 2996
255.375 -1495.5 2996
303 -1499 2996
450.44446 -1485 2996
533 -1481 2996
670.33331 -1496.6666 2996
791.5 -1495.5 2996
816 -1465.1666 2996
963 -1478 2996
1023.5 -1496.6666 2996
1456 -1499 2996
-493 -1513 3009
247.75 -1506 3009
352.36365 -1525.7273 3009
410 -1506 3009
571.5 -1532.25 3009
629 -1520 3009
750.40002 -1513.7 3009
1049.3077 -1551.9231 3009
1102 -1534 3009
1269.3334 -1531.6666 3009
1357.65 -1545.9 3009
1422.4138 -1543.8966 3009
1542.9117 -1542.0294 3009
1640.9546 -1550.5454 3009
1961.7333 -1548.1333 3009
2045.375 -1557.625 3009
2163.5925 -1574 3009
2259.0667 -1538.2 3009
2332.7036 -1529.5927 3009
2860 -1516.5 3009
2914 -1566.1428 3009
-768.53845 -1445.7693 3009
-647.29999 -1476.9 3009
-552.87878 -1456.5151 3009
-464.5 -1431.5 3009
-242 -1440.8334 3009
-148.28572 -1452.5 3009
-51.18182 -1452.1818 3009
53.5 -1464 3009
156 -1480.5454 3009
255.83333 -1495.5 3009
307.5 -1499 3009
451.28571 -1485 3009
535.44446 -1477 3009
671 -1499 3009
787.5 -1499 3009
825.59998 -1456.2 3009
968 -1480.7142 3009
1028.1428 -1497 3009
1457.3334 -1498.2222 3009
240 -1508.5 3022
344.22223 -1524 3022
408.5 -1508.5 3022
565.20001 -1519.2 3022
649.33331 -1514.5 3022
750.14288 -1517 3022
1063.7142 -1541.9286 3022
1107 -1534 3022
1272.8 -1535.4 3022
1368.8334 -1542.7084 3022
1419.9375 -1516 3022
1544.6666 -1539.8334 3022
1658.9 -1555.9 3022
1960.4117 -1558.4706 3022
2053.5 -1505 3022
2269.6667 -1542.1666 3022
2320.6001 -1513.4 3022
2863 -1516.6666 3022
2912.6667 -1543.3334 3022
-769.8125 -1446.375 3022
-625.69232 -1486.1538 3022
-561.91895 -1456.3784 3022
-241.25 -1443.25 3022
-138.36363 -1453.5454 3022
-57.18182 -1454.9091 3022
48.722221 -1459.8334 3022
141.42857 -1483 3022
276 -1494.5 3022
312.60001 -1495.2 3022
453.23077 -1485.6154 3022
543 -1484 3022
795 -1498 3022
816 -1476.8 3022
960.33331 -1474.5 3022
1023.8571 -1497 3022
1438.25 -1497.125 3022
-504 -1505 3036
-493.5 -1522.5 3036
245.22223 -1508.8889 3036
351.91666 -1529.4166 3036
580.57141 -1532.5714 3036
648.18182 -1518.6364 3036
754.57141 -1518 3036
1066.6666 -1530.3334 3036
1259 -1536.3334 3036
1368 -1537.375 3036
1438.7273 -1511.3636 3036
1550.0968 -1545.129 3036
1663.8948 -1546.2106 3036
1960.8096 -1551.9048 3036
2263.7778 -1541.5555 3036
2307.25 -1526.5 3036
2867 -1516.6666 3036
2935.8 -1565 3036
-767.77777 -1448.6666 3036
-637.375 -1471.3125 3036
-568.10529 -1437.1052 3036
-251.85715 -1445 3036
-148 -1457.3334 3036
-50.75 -1453.25 3036
52.833332 -1461.25 3036
127.22222 -1480.8889 3036
257.46155 -1493.6923 3036
309 -1490 3036
455.81818 -1487.1818 3036
551.79999 -1484.7 3036
798 -1498 3036
823 -1482.7142 3036
976.66669 -1485 3036
1052 -1497.3 3036
1440.3334 -1497.2222 3036
-499 -1519 3049
238.71428 -1507 3049
347.33334 -1526.5555 3049
412 -1515 3049
584 -1533.8572 3049
629.59998 -1529.2 3049
749.85712 -1520.5714 3049
816 -1504 3049
1071.7142 -1514.4286 3049
1107.75 -1538.25 3049
1249 -1540 3049
1362.579 -1535.5264 3049
1437 -1507.625 3049
1554.5 -1534.6 3049
1661.1 -1536.6 3049
1941.8154 -1557.5538 3049
2271.6667 -1542.2222 3049
2313.5 -1525.75 3049
2862.3333 -1511.3334 3049
2938.8333 -1550.6666 3049
-764.55554 -1448.8889 3049
-627.30432 -1466.174 3049
-499 -1476 3049
-232.75 -1454 3049
-155 -1454.7778 3049
-51.25 -1455.125 3049
52.214287 -1460.5 3049
141.46153 -1483 3049
250.27272 -1491.9091 3049
319.36365 -1484.2727 3049
458.39999 -1484.4 3049
557.09998 -1487.9 3049
821.25 -1477.25 3049
966.5 -1477 3049
1072 -1493.2307 3049
1102 -1497 3049
1439.5714 -1497 3049
2304 -1497 3049
-502 -1518 3063
238 -1504 3063
357.36365 -1529.5454 3063
411.75 -1514.75 3063
591.5 -1528.6428 3063
637.17645 -1523.0588 3063
764.5 -1525 3063
816.5 -1504 3063
1028.4 -1504 3063
1107.25 -1525.625 3063
1282.3334 -1547 3063
1369.1666 -1534 3063
1418.6666 -1508.8334 3063
1551.1666 -1520.75 3063
1652.9 -1535.8 3063
1948.2909 -1539.2727 3063
2277.25 -1518.25 3063
2322 -1532.5 3063
2836 -1504 3063
2930.6667 -1547.3334 3063
-751.27271 -1454.0909 3063
-636.58826 -1469.1177 3063
-444 -1468 3063
-243.55556 -1454.5555 3063
-155.41667 -1458.6666 3063
-53.555557 -1458.5555 3063
49.083332 -1458.9166 3063
147.85715 -1483.5 3063
252.53334 -1492.7333 3063
326.91666 -1481.6666 3063
456 -1486 3063
559.18182 -1488.4546 3063
604 -1497 3063
820 -1479.8 3063
976 -1484.25 3063
1060 -1495.6 3063
1100 -1482 3063
1218.5 -1493.5 3063
1452.4286 -1497 3063
2293 -1497 3063
2304.5 -1497 3063
-504 -1514.5 3077
356.28571 -1523.4286 3077
415.5 -1511 3077
631 -1522.3334 3077
753.88892 -1520.5555 3077
802 -1504 3077
1043.4 -1504 3077
1120 -1533 3077
1260.5 -1538 3077
1362.5454 -1538.4546 3077
1447.4 -1506.8 3077
1554 -1520 3077
1655.9091 -1534.9091 3077
1936.4375 -1548.125 3077
2286.8333 -1543.3334 3077
2322.1667 -1542.1666 3077
2795 -1504 3077
2844.1667 -1511 3077
2946.3999 -1552.8 3077
-764.83331 -1444 3077
-649.52631 -1462.7368 3077
-403 -1446 3077
-358 -1439 3077
-273 -1448.3334 3077
-134.57143 -1462.2858 3077
-58 -1460.4166 3077
47.5 -1457.3572 3077
127 -1479.6666 3077
251 -1486.8462 3077
328.72726 -1477.5454 3077
461 -1487.8334 3077
557.66669 -1489 3077
603.5 -1492.5 3077
825.33331 -1482.5555 3077
1059 -1491.8 3077
1466 -1496 3077
375.75 -1541.5 3091
414 -1517.6666 3091
642.4375 -1522.4375 3091
756.08331 -1529.4166 3091
806 -1503 3091
1055.4286 -1505.2858 3091
1253.5 -1530.5 3091
1362.6666 -1543.5555 3091
1455.1111 -1505.5555 3091
1533.8 -1520.8 3091
1667 -1534 3091
1924 -1545.6666 3091
2318.125 -1539.625 3091
2779 -1503 3091
2858.5 -1514.5 3091
2957.7144 -1552 3091
3003 -1590 3091
-760.54999 -1443.55 3091
-639.78571 -1458.4286 3091
-499 -1445 3091
-363 -1434.5 3091
-242.16667 -1461.5834 3091
-142.25 -1461.1666 3091
-58.833332 -1460.5 3091
68.333336 -1469.6666 3091
147.53334 -1485.9333 3091
246.03847 -1483.1154 3091
335.45456 -1476.8182 3091
455.5 -1487.6 3091
546.33331 -1492.5 3091
610 -1496 3091
827.5 -1479.1666 3091
965.16669 -1475.6666 3091
1049 -1496 3091
1110 -1489 3091
1236 -1479.3334 3091
365.20001 -1523.4 3105
412.5 -1524.5 3105
651.76923 -1519.5385 3105
771.54547 -1525.9091 3105
805.5 -1503 3105
1048.5 -1507.6666 3105
1259.4667 -1537.3334 3105
1350.6 -1550.2 3105
1455.875 -1508.25 3105
1554.1111 -1525.4445 3105
1652.1111 -1538.2222 3105
1921.1333 -1553.4 3105
2328.1111 -1553.6666 3105
2798 -1510 3105
2860.5 -1517 3105
2977 -1557.5 3105
3006 -1572 3105
-757.71429 -1442.8572 3105
-656.27271 -1466.4546 3105
-406 -1448.5 3105
-355.60001 -1441.8 3105
-231.2381 -1455.9048 3105
-160.85715 -1459 3105
-80 -1463.3 3105
42.799999 -1459.3 3105
171.33333 -1491.7778 3105
244.10527 -1478 3105
349.63635 -1476.3636 3105
462.5 -1486.8 3105
535.40002 -1494.4 3105
612.66669 -1496 3105
834.75 -1468.25 3105
976.75 -1472 3105
1108 -1490.6666 3105
1242.5 -1481 3105
374 -1540.1666 3119
413.39999 -1520 3119
535 -1502 3119
653.69232 -1516.3846 3119
755.53845 -1529.9231 3119
813 -1502 3119
1048.125 -1506 3119
1268.7858 -1539 3119
1368 -1552.3334 3119
1446.5714 -1514 3119
1530.25 -1520.75 3119
1660.6666 -1540.1666 3119
1751.7273 -1578 3119
1925.0909 -1553.5454 3119
2342.6667 -1557.1666 3119
2781.5 -1506 3119
2864.6667 -1521.6666 3119
2947 -1546.4 3119
3031 -1597 3119
-752.90912 -1449.0909 3119
-644.93335 -1452.9333 3119
-437.66666 -1451 3119
-360.36365 -1439.5454 3119
-234.20833 -1452.2084 3119
-145.23529 -1457.8823 3119
-63.933334 -1459.8 3119
63.833332 -1471.8334 3119
148.16667 -1487 3119
257.39999 -1475.8 3119
350 -1478.9091 3119
456.42856 -1486.6428 3119
578.59998 -1495 3119
615.33331 -1495 3119
831.5 -1491.5 3119
974 -1484 3119
1113 -1491.5 3119
1244.5 -1473 3119
173.5 -1502 3133
378.60001 -1525.9 3133
409.66666 -1523.6666 3133
531.40002 -1502 3133
656.16669 -1515.1666 3133
769.70001 -1529.5 3133
813 -1505.5 3133
1043 -1509 3133
1282.375 -1538.5 3133
1341.1111 -1564.7778 3133
1450.4 -1519.2 3133
1548.1666 -1527.1666 3133
1663.1666 -1546 3133
1755.5 -1576.7 3133
1842.5927 -1579.4073 3133
1925.1538 -1562.1538 3133
2347.7144 -1564.7142 3133
2849.8572 -1522.8572 3133
2941.3333 -1543.3334 3133
3022.1667 -1576.5 3133
-752.47369 -1451.7894 3133
-658.78949 -1460.7368 3133
-432.60001 -1447.8667 3133
-368 -1436.2142 3133
-260.79999 -1451.9 3133
-135.25 -1454.9375 3133
-64.647057 -1454.2941 3133
49.23077 -1466.0769 3133
154.06667 -1487 3133
252 -1475.2 3133
353.93332 -1480.1333 3133
461.63635 -1483.1818 3133
548 -1494 3133
614.25 -1494 3133
839 -1483.5 3133
982 -1494 3133
1121.5 -1490.5 3133
390.39999 -1534.7 3148
411.29999 -1516.1 3148
539.83331 -1505 3148
663.20001 -1516.3 3148
762.52631 -1533.3158 3148
818.75 -1507 3148
1045.4445 -1508.5555 3148
1108.6666 -1506.3334 3148
1283.5 -1521.1666 3148
1327.8334 -1565.5 3148
1449.2222 -1525.2222 3148
1545.6666 -1528.5 3148
1624.4 -1547.4 3148
1748.7778 -1572.2222 3148
1851.4783 -1577.3914 3148
1926.6207 -1565.4828 3148
2364.3333 -1573 3148
2819 -1520 3148
2952.6667 -1545.6666 3148
3036.75 -1581 3148
-746 -1448.7142 3148
-664.58826 -1455.8823 3148
-435.77777 -1446.9445 3148
-356.08334 -1439.1666 3148
-243.60001 -1449.7 3148
-139.8 -1454.3334 3148
-58.75 -1453.5834 3148
70.285713 -1477.2858 3148
164.16667 -1491.6666 3148
248.92308 -1478.6923 3148
352.66666 -1479.8334 3148
449.60001 -1486.8 3148
503 -1494 3148
1123 -1494 3148
1251.3334 -1476.6666 3148
388 -1543.5555 3162
404.20001 -1530.4 3162
549.625 -1506.25 3162
643.45453 -1508.3636 3162
759.86664 -1532.8667 3162
821.66669 -1508 3162
987.33331 -1501 3162
1053.3334 -1514.1111 3162
1117.5 -1504.5 3162
1289.3334 -1520.3334 3162
1338.1428 -1565.5714 3162
1450 -1530.5 3162
1553.6666 -1532.6666 3162
1667.3334 -1553 3162
1759.1 -1575 3162
1841.5555 -1573.3889 3162
1924.7222 -1557.6666 3162
2377.3333 -1579.6666 3162
2850 -1530 3162
2944.5 -1547.25 3162
3058 -1582 3162
-738.11768 -1451 3162
-681.77777 -1459.3334 3162
-438.72223 -1442.6111 3162
-345.20001 -1442.2667 3162
-263.39999 -1454.8 3162
-154.16667 -1457.5 3162
-65.199997 -1451.8 3162
40.5 -1462.625 3162
141.55556 -1488.3334 3162
254.3 -1478.2 3162
343.875 -1479 3162
461.85715 -1488 3162
505 -1493 3162
1136 -1493 3162
3087 -1605 3177
392 -1552.5 3177
556.79999 -1512.2 3177
665.14288 -1519.5714 3177
759.93335 -1530.8 3177
819 -1511.5 3177
1051.625 -1514.5 3177
1111 -1515 3177
1294 -1519 3177
1342.4445 -1569 3177
1443.5555 -1538.5555 3177
1550.6 -1534.1 3177
1667 -1560 3177
1752.4 -1569.8 3177
1846.6154 -1573.3077 3177
1927.5264 -1554.3158 3177
2846 -1530.3334 3177
2951 -1549 3177
3043.8 -1580.8 3177
-733.40002 -1452.4 3177
-659.46667 -1448.9333 3177
-538.75 -1438.75 3177
-450.14816 -1446.8889 3177
-352.92307 -1438.4615 3177
-264.79999 -1452.6666 3177
-143.83333 -1455.75 3177
-61.099998 -1452 3177
59.5 -1478.125 3177
160.42857 -1495 3177
228.57143 -1482.4286 3177
358.25 -1482 3177
455.39999 -1490.9 3177
511.25 -1496.5 3177
645.5 -1500 3177
839.5 -1496.5 3177
1134 -1500 3177
1258.5 -1480 3177
563.28571 -1514 3192
649.5 -1513.375 3192
760.0625 -1528.375 3192
819.125 -1510.625 3192
993 -1508 3192
1047.8 -1515.9 3192
1121.6666 -1515 3192
1289 -1515 3192
1330.4445 -1556.3334 3192
1455.2 -1537.4 3192
1566.25 -1539.25 3192
1611 -1560 3192
1750 -1568.4286 3192
1858.8462 -1571.3077 3192
1928.3572 -1551.7142 3192
2869.3333 -1535 3192
2929.25 -1546.75 3192
3066 -1588 3192
-720.17389 -1455.2609 3192
-689.5 -1445.75 3192
-546.25 -1439.375 3192
-457.5 -1441.75 3192
-265.66666 -1450.3334 3192
-145.77777 -1460.2222 3192
-45.42857 -1463.8572 3192
54.307693 -1475.6154 3192
151.7 -1495.1 3192
254.375 -1484.25 3192
340 -1485.8 3192
444 -1495.1666 3192
517 -1500 3192
847 -1496.5 3192
1281 -1500 3192
174 -1507 3207
547.75 -1516.5 3207
648.33331 -1512.1666 3207
750.84613 -1530.9231 3207
820.79999 -1507 3207
1066.375 -1520.5 3207
1124.3334 -1519.6666 3207
1347.75 -1571.125 3207
1451 -1550.5 3207
1536.75 -1532.75 3207
1626.25 -1565.25 3207
1750.5555 -1569.7778 3207
1847.1538 -1577.6154 3207
1948.1578 -1533.6842 3207
2843.6001 -1528.4 3207
2969.5 -1556 3207
3033.5 -1578.5 3207
3109 -1597 3207
-716.79999 -1453.2667 3207
-671.42859 -1444.7142 3207
-538.79999 -1443.6 3207
-462.91666 -1441.8334 3207
-355.61539 -1438.7693 3207
-244.33333 -1456.6666 3207
-143.5 -1459.75 3207
-57.272728 -1459 3207
60.777779 -1479.3334 3207
143.125 -1492 3207
230.57143 -1486.2858 3207
384 -1492 3207
463.5 -1494.6666 3207
512.33331 -1500 3207
1264.75 -1480.5 3207
175 -1507 3222
429 -1507 3222
563.90002 -1518.9 3222
662.20001 -1515.1 3222
752.54547 -1531.1818 3222
824.59998 -1508.4 3222
1059 -1518.6 3222
1122.6 -1524.6 3222
1293 -1507 3222
1346.3334 -1566.2222 3222
1453.5 -1553.1666 3222
1554.5 -1536.75 3222
1651.3334 -1571 3222
1754.625 -1571.75 3222
1850.2858 -1577.2142 3222
1944.9445 -1537.5555 3222
2874 -1544 3222
2956.75 -1555.5 3222
3062.8 -1588 3222
-716 -1434.1 3222
-660.42859 -1449.5714 3222
-535.28571 -1448.4286 3222
-269.33334 -1455.1666 3222
-147.88889 -1463.6666 3222
-56.222221 -1458.7778 3222
64 -1478.6154 3222
138.77777 -1487.5555 3222
248.83333 -1487.5 3222
336.66666 -1491.8889 3222
473 -1495 3222
511 -1499 3222
662 -1499 3222
863 -1499 3222
426 -1506 3237
543.83331 -1513.6666 3237
665.53845 -1514.8462 3237
762.42859 -1529.8572 3237
830.5 -1512 3237
996 -1506 3237
1054.1428 -1522.1428 3237
1132.25 -1525 3237
1353.5 -1571.375 3237
1467.625 -1550.5 3237
1547.2 -1538.4 3237
1647.4 -1572.8 3237
1759 -1571.5 3237
1852.2778 -1577.3889 3237
1934.95 -1537.15 3237
2841.5 -1525 3237
2963 -1544.4615 3237
3046.6001 -1582 3237
-659.20001 -1454.2 3237
-548 -1449 3237
-474 -1440.6 3237
-251.66667 -1460.3334 3237
-127.5 -1460.5 3237
-42.333332 -1468.7778 3237
76 -1479.2307 3237
144.16667 -1483.1666 3237
246.16667 -1488.3334 3237
334.79999 -1493.8 3237
471.66666 -1498 3237
502 -1498 3237
874 -1483 3237
1269.5 -1483.5 3237
382 -1506 3253
435.75 -1513.25 3253
555.33331 -1518.6666 3253
659.125 -1514.5 3253
745.23077 -1534 3253
836.5 -1513 3253
1040.8572 -1523.2858 3253
1123.7142 -1532.8572 3253
1298 -1506 3253
1344.125 -1558.125 3253
1449.2 -1571.4 3253
1588.5 -1548 3253
1634 -1572.8 3253
1753.6666 -1572.6666 3253
1852.5555 -1577 3253
1933.0526 -1540.6842 3253
2890 -1548 3253
2977.6365 -1538.2727 3253
3021.7778 -1555.7778 3253
-652 -1457.3334 3253
-546.40002 -1452.2 3253
-476.88889 -1441.2222 3253
-259.75 -1464 3253
-154.83333 -1474.1666 3253
-55.666668 -1463.9166 3253
55.714287 -1475.6428 3253
144.33333 -1481.75 3253
246.55556 -1493.3334 3253
335 -1496.6 3253
489 -1498 3253
688 -1498 3253
878 -1483 3253
1001 -1498 3253
1275 -1491 3253
181 -1505 3268
374 -1507.6666 3268
474.25 -1508.75 3268
549.875 -1517.5 3268
659.88892 -1514.4445 3268
736.6842 -1532.8422 3268
844.20001 -1515.8 3268
1062.8334 -1529.3334 3268
1125 -1534.4 3268
1297 -1505 3268
1350.3334 -1556.8889 3268
1466.6666 -1567.5 3268
1546.5 -1543.6666 3268
1654.7142 -1577.1428 3268
1759.6666 -1566.2778 3268
1846.4091 -1552.7727 3268
1929.8823 -1545.7059 3268
2742.25 -1513 3268
2841 -1525 3268
2977.3333 -1550.25 3268
3032.0386 -1554.8077 3268
-661 -1462.2 3268
-546.33331 -1455.4445 3268
-261.14285 -1466.7142 3268
-138.42857 -1473.2858 3268
-42.142857 -1471 3268
63.142857 -1474.1428 3268
140.38461 -1477.9231 3268
231.55556 -1491.5555 3268
319.60001 -1497 3268
691 -1497 3268
1005 -1497 3268
1281 -1490 3268
3161.7 -1617.8 3284
182 -1505 3284
285.66666 -1505 3284
360 -1507.3334 3284
448.57144 -1517.8572 3284
550.33331 -1519.5 3284
636.375 -1524.125 3284
743.625 -1536.3334 3284
832.875 -1519 3284
1045.75 -1530 3284
1131.8 -1535.8 3284
1295 -1505 3284
1358.5555 -1557.8889 3284
1466.75 -1576 3284
1549.5 -1545 3284
1628 -1568 3284
1778.9642 -1550.1428 3284
1845.5538 -1548.9846 3284
1918.7142 -1539.6666 3284
2705 -1512 3284
2869.6667 -1535.6666 3284
2974.5 -1553.3 3284
3049.75 -1555.3125 3284
-657.375 -1466.125 3284
-543.88892 -1456.4445 3284
-262.5 -1470 3284
-175.5 -1489 3284
-58.636364 -1464.8182 3284
44.222221 -1479.3334 3284
143.46153 -1478.5385 3284
227.63637 -1489.8182 3284
320.5 -1497 3284
1010 -1489.3334 3284
3165.2222 -1617.5555 3300
182.5 -1504 3300
282 -1504 3300
349.20001 -1508.8 3300
460.16666 -1518.6666 3300
563.57141 -1523.2858 3300
656.59998 -1519.8 3300
744.08698 -1523.3043 3300
837.77777 -1520 3300
1049.2 -1533.6 3300
1136.5714 -1539.5714 3300
1340.4286 -1537.4286 3300
1479.6 -1575.8 3300
1551.1538 -1548.5385 3300
1656.3 -1581.9 3300
1767.7826 -1549.4783 3300
1856.5834 -1551.375 3300
1912.7273 -1526.1818 3300
2695 -1512 3300
2752 -1520 3300
2834.8 -1526.2 3300
2983.2727 -1556.4546 3300
3063.0588 -1557.7059 3300
3106 -1597 3300
-666.25 -1467.5 3300
-534.81818 -1453 3300
-258.28571 -1475.5714 3300
-150.55556 -1483.8889 3300
-43.583332 -1472.0834 3300
57.666668 -1479.6666 3300
164 -1484.4166 3300
218.57143 -1486.7142 3300
322 -1497 3300
1294 -1497 3300
3142.25 -1611 3316
-170 -1504 3316
187 -1504 3316
286 -1506.6666 3316
356.28571 -1511.7142 3316
444.33334 -1529.6666 3316
553.88892 -1521.7778 3316
630.875 -1531 3316
743.75 -1515.0625 3316
849.5 -1520.7 3316
1053.125 -1529.125 3316
1142.5 -1541 3316
1354.6666 -1545.4445 3316
1546.2858 -1549.7142 3316
1644.5714 -1573.8572 3316
1772.4375 -1547.1875 3316
1896 -1522.25 3316
1907 -1519.4 3316
2685 -1512 3316
2759.8 -1525.4 3316
2844.75 -1531 3316
2962.8572 -1558.4286 3316
3035.3572 -1541.0714 3316
3113 -1580.4286 3316
-648.16669 -1472.6666 3316
-526.72729 -1441.5454 3316
-242 -1458.6666 3316
-134.5 -1480.5 3316
-50.599998 -1470.2 3316
28.428572 -1486.8572 3316
162.17647 -1480.4117 3316
230.25 -1489 3316
319.60001 -1496 3316
1016 -1476.5 3316
3170.125 -1616.75 3332
-202 -1503 3332
-163 -1503 3332
284 -1507 3332
370.25 -1517 3332
456.5 -1529.5 3332
558.75 -1525 3332
668 -1521.6666 3332
753.33331 -1515.2667 3332
847 -1522.3334 3332
1055.1428 -1531 3332
1153.4286 -1540 3332
1361.2 -1547.1 3332
1458.2222 -1580.4445 3332
1539.5454 -1551.4546 3332
1660.5 -1562.6 3332
1754.3478 -1530.0435 3332
2745 -1527 3332
2852 -1537.3334 3332
2969.75 -1577.5 3332
3026.5881 -1555.2354 3332
3133.4666 -1578.2 3332
-662.79999 -1483.2 3332
-534.59998 -1448.4667 3332
-143.8 -1470.4 3332
-62.166668 -1465.3334 3332
78.75 -1484 3332
149.90909 -1474.9091 3332
231.375 -1488.5 3332
321.20001 -1495 3332
1027.6666 -1482.3334 3332
3186.7144 -1612.7142 3348
-218 -1503 3348
-175 -1508.25 3348
283.39999 -1507.2 3348
360.66666 -1511.6666 3348
446.79999 -1538.8 3348
559.375 -1525 3348
648.45453 -1532.5454 3348
761.18182 -1520.3636 3348
840.79999 -1519.0667 3348
1051.5 -1536 3348
1150.625 -1545 3348
1364.6 -1546.6 3348
1447.5909 -1575.2273 3348
1563.5 -1548.375 3348
1656.7333 -1559.6666 3348
1754.125 -1538.5 3348
2750.3333 -1531.3334 3348
2862.25 -1536 3348
2948.2 -1567 3348
3024.0769 -1560 3348
3159.5386 -1578.6923 3348
-650.5 -1479 3348
-157.5 -1453.5 3348
-57.636364 -1471.3636 3348
35 -1495 3348
152.66667 -1481.6666 3348
239.66667 -1489.6666 3348
322.79999 -1495 3348
3237.9614 -1618.5385 3365
-219.5 -1506 3365
-168 -1510 3365
-6 -1502 3365
24.200001 -1502 3365
281 -1508 3365
358.42856 -1513.4286 3365
434.66666 -1542 3365
551.41669 -1526.6666 3365
653.23077 -1528.4615 3365
757.18182 -1515.0909 3365
854.08331 -1521.3334 3365
905 -1526 3365
1068.3 -1537.2 3365
1142.625 -1548 3365
1366.625 -1548 3365
1448.931 -1571.8621 3365
1555.6666 -1551.25 3365
1662.5714 -1552.0476 3365
1755.2778 -1551.2222 3365
2693 -1518 3365
2761.2 -1535.6 3365
2856 -1542 3365
2969.6667 -1573.3334 3365
3040.6667 -1556.3334 3365
3160 -1567.6364 3365
3234.6667 -1587.8572 3365
-667 -1489 3365
-547.36365 -1453.6364 3365
-247.11539 -1454.7693 3365
-155.375 -1460.875 3365
-61.57143 -1465.2858 3365
79.800003 -1491.2 3365
154.58333 -1481.6666 3365
247.54546 -1487.5454 3365
316.66666 -1494 3365
3281 -1623.3334 3381
-665 -1502 3381
-222.25 -1507.75 3381
-165 -1517 3381
-22 -1502 3381
56 -1502 3381
284 -1508 3381
359.90909 -1512.5454 3381
450.71429 -1545.5714 3381
567 -1525 3381
648.0769 -1533.6923 3381
740.5 -1512.75 3381
855.54999 -1514.65 3381
905 -1529 3381
1068 -1528.25 3381
1149.4 -1549 3381
1368.4286 -1545.5714 3381
1444.4445 -1574.7778 3381
1547.7858 -1555.2858 3381
1663.3529 -1550.4706 3381
1744.8572 -1569.8572 3381
2698 -1517 3381
2743 -1533 3381
2854.7144 -1545.5714 3381
2953.3333 -1566.3334 3381
3026.5264 -1565 3381
3164.8333 -1565 3381
3246.4443 -1581.8889 3381
-653 -1486 3381
-247.06667 -1461.7333 3381
-159 -1457 3381
-59.714287 -1467.7142 3381
88 -1490 3381
145.71428 -1481.4286 3381
248.46153 -1484.7693 3381
330 -1494 3381
1040 -1482 3381
-658 -1505 3398
-217.2 -1507.4 3398
-167.14285 -1517 3398
-10 -1509 3398
25 -1509 3398
292 -1505 3398
366.125 -1511 3398
453 -1549 3398
570.20001 -1525 3398
648.625 -1535 3398
782 -1523 3398
859 -1512 3398
906 -1525 3398
1079 -1533 3398
1151.6666 -1550.3334 3398
1205 -1549 3398
1358 -1539 3398
1445.4546 -1564.2727 3398
1548.3 -1557.8 3398
1668.6471 -1546.4117 3398
1731.3478 -1581 3398
2749.75 -1535 3398
2879 -1549 3398
2952.6001 -1565 3398
3048 -1556.3846 3398
3142 -1552.4286 3398
3256.2856 -1577.5714 3398
3305.4285 -1575.2858 3398
-718.28571 -1442.7142 3398
-628 -1493 3398
-555.28571 -1449.5714 3398
-175 -1476 3398
-54 -1475.6666 3398
88 -1493 3398
150.85715 -1487.2858 3398
259.42856 -1483.2858 3398
338.30768 -1489.9231 3398
-665.66669 -1505 3415
-207 -1517 3415
-171 -1517 3415
-18 -1509 3415
43 -1513 3415
371.66666 -1511.6666 3415
429.44446 -1554.3334 3415
570 -1522.6 3415
637.11108 -1529.8889 3415
750 -1519.6666 3415
843.5 -1512.5 3415
914 -1525 3415
1084.375 -1523 3415
1149.9091 -1551.1818 3415
1207 -1549 3415
1361.6666 -1541 3415
1453 -1565.6666 3415
1562 -1556 3415
1650.3334 -1535.6666 3415
1718.6666 -1557 3415
2747.6667 -1534.3334 3415
2853.5 -1557 3415
2946 -1562 3415
3052 -1557 3415
3167.6001 -1558.6 3415
3256.2856 -1584.4286 3415
3321.6365 -1571.5454 3415
-716 -1454.3334 3415
-655 -1493 3415
-158.33333 -1475 3415
-62 -1467.1538 3415
97 -1493 3415
151.66667 -1487.6666 3415
254.60001 -1485 3415
348.36841 -1486.6842 3415
594 -1493 3415
618 -1475.8572 3415
1307 -1489 3415
-663 -1508 3432
-178.53847 -1517.2307 3432
-14 -1510.6666 3432
29 -1516 3432
393 -1520 3432
445.20001 -1554.6 3432
551 -1531.3334 3432
648.75 -1520 3432
772.5 -1518.6666 3432
827.46667 -1516 3432
917 -1515 3432
1094 -1520 3432
1140.5454 -1550.1818 3432
1209 -1548 3432
1348.1666 -1530.6666 3432
1446.7142 -1563 3432
1556 -1566.625 3432
1650.6 -1537.8667 3432
1700 -1508 3432
2755 -1537.3334 3432
2852.8572 -1562.4286 3432
2944.75 -1557 3432
3048 -1564.5 3432
3137.8889 -1549 3432
3255 -1586.3334 3432
3339.2666 -1572.2667 3432
-639.66669 -1497.3334 3432
-157.33333 -1484 3432
89 -1500 3432
137.5 -1491 3432
257.14285 -1482.8572 3432
369.66666 -1477.6666 3432
403 -1492 3432
593 -1496 3432
636.29413 -1477.4117 3432
1317.8 -1487.2 3432
-656.66669 -1513.3334 3450
-172.5 -1522 3450
-14.666667 -1510.6666 3450
43.888889 -1516.8889 3450
397 -1532 3450
436.20001 -1551.3334 3450
560.5 -1532 3450
667.54547 -1519.6364 3450
760.1875 -1517 3450
852.90912 -1508 3450
922 -1509.6 3450
1094 -1508 3450
1140.9474 -1544.1052 3450
1215 -1548 3450
1352.6 -1531.3 3450
1441.3 -1559.65 3450
1555.0909 -1570.6364 3450
1655.7142 -1539.4286 3450
1705 -1512 3450
2746.6001 -1527.2 3450
2826 -1561 3450
2938.0527 -1548.421 3450
3062.2856 -1554.2142 3450
3131.5 -1542.25 3450
3245.3999 -1585.8 3450
3350.7646 -1567.1177 3450
-711.88892 -1454.8889 3450
-614 -1500 3450
-155.66667 -1481 3450
156.5 -1495 3450
239.84616 -1482 3450
351.72726 -1475.4546 3450
409.5 -1488 3450
592 -1500 3450
1332 -1492 3450
-654.66669 -1512.3334 3467
-150.33333 -1509.6666 3467
-9 -1509.6666 3467
28.4 -1518.6 3467
429.16666 -1550.5 3467
560.5 -1534.5 3467
692 -1507 3467
728.47058 -1517.3529 3467
863.11108 -1507 3467
920 -1507 3467
1148.4231 -1538.0385 3467
1209 -1544 3467
1363.6364 -1528.7273 3467
1459.2 -1539.8286 3467
1550.5 -1573.3334 3467
1648.1666 -1541.3334 3467
1709 -1515.3334 3467
2768.2 -1535 3467
2864.6001 -1568.8 3467
2942.4443 -1545.7778 3467
3052.2307 -1565.8462 3467
3141.6667 -1541.3334 3467
3263 -1588.6666 3467
3353.5881 -1558.8823 3467
3406.3333 -1588.6666 3467
-711.71429 -1449.1428 3467
-608 -1499 3467
-141 -1486.4445 3467
179.8 -1499 3467
249.14285 -1486.4286 3467
347.83334 -1478.3334 3467
420 -1491 3467
595 -1499 3467
1339.8 -1489.4 3467
3424.1819 -1634.8182 3485
-702 -1515 3485
-665.59998 -1521.4 3485
-150 -1507 3485
-10.5 -1507 3485
36.083332 -1518.3334 3485
438.46667 -1548.8 3485
547.25 -1545.0834 3485
731.0769 -1515 3485
870.33331 -1507 3485
920.75 -1507 3485
1155.3334 -1530.3334 3485
1214.2 -1541.4 3485
1374.8334 -1532.8334 3485
1456.0811 -1533.1892 3485
1536.8572 -1569.5 3485
1658.1538 -1541.1538 3485
1714 -1516.3334 3485
2777 -1537.75 3485
2840.375 -1565 3485
2943.5 -1545.7 3485
3057.2856 -1561.8572 3485
3148.2 -1539.5 3485
3248.4285 -1581.7142 3485
3372.9614 -1540.2693 3485
3423.1667 -1582 3485
-712 -1470.25 3485
-603 -1499 3485
-134.375 -1484.375 3485
111 -1499 3485
251.69231 -1484.2307 3485
359.92307 -1470.4615 3485
405.5 -1478 3485
598 -1499 3485
1460.5 -1499 3485
3325.75 -1605 3503
-705 -1515 3503
-645 -1514.6666 3503
-146 -1506 3503
44.923077 -1521 3503
159.66667 -1506 3503
445.5625 -1549.5625 3503
558.42859 -1542.8572 3503
727 -1506 3503
874.42859 -1509.8572 3503
917.25 -1508.25 3503
1167 -1517.4706 3503
1211.6666 -1528.3334 3503
1390 -1537.1428 3503
1441.1177 -1529.2354 3503
1543.421 -1564.3158 3503
1648.8334 -1543.3334 3503
1714.4 -1516.2 3503
2781.6667 -1525.6666 3503
2851.3999 -1567.2 3503
2936.8 -1557.25 3503
3058.4707 -1566.4117 3503
3149 -1537.8182 3503
3245 -1576.3334 3503
3379 -1541.5714 3503
3426.9167 -1548.25 3503
-711.25 -1463.25 3503
-162.75 -1483.75 3503
247.36363 -1482.7273 3503
358.71429 -1473.4286 3503
415.75 -1486 3503
1365 -1494 3503
1455.625 -1495 3503
3344 -1605 3521
-705 -1518 3521
-649.20001 -1524.2 3521
-138.66667 -1506 3521
40 -1519.0769 3521
170.8 -1512.4 3521
207 -1506 3521
457.61539 -1549.0769 3521
551 -1548.9 3521
720.85712 -1508.2858 3521
876.75 -1508 3521
912.33331 -1511.3334 3521
1191.8334 -1518.1666 3521
1215.3334 -1512.6666 3521
1393 -1518.25 3521
1429.65 -1533.2 3521
1552.0385 -1565.6154 3521
1668 -1533.4762 3521
1705.2858 -1521.1428 3521
2815.25 -1538 3521
2938 -1556.1428 3521
3054.0557 -1563.3889 3521
3161.1667 -1536.3334 3521
3251.2856 -1574.4286 3521
3389.1428 -1561.4286 3521
3444.3999 -1549 3521
-713 -1454.8334 3521
-601 -1451 3521
-142.44444 -1483.8889 3521
247.90909 -1481.8182 3521
357.66666 -1472.4 3521
416.66666 -1484 3521
3359 -1611.4 3539
-704 -1513.6666 3539
-652 -1525.5714 3539
-139.33333 -1505 3539
51.400002 -1517.9 3539
133.66667 -1514 3539
208 -1505 3539
462.5 -1564.5 3539
571.5 -1538.75 3539
727.5 -1505 3539
895 -1508 3539
916.71429 -1508.8572 3539
1396 -1505 3539
1429.6154 -1518.6923 3539
1558.2759 -1547.6897 3539
1649.8636 -1538.1818 3539
2862 -1569 3539
2947.7144 -1556.2858 3539
3066.3076 -1564 3539
3139.8572 -1543.5714 3539
3248.75 -1568.625 3539
3351.5 -1592.5 3539
3440.6001 -1540.2 3539
-161 -1482 3539
236.38095 -1478.762 3539
348.5 -1477.9375 3539
416 -1484.5 3539
1379 -1497 3539
3365.3333 -1612.5 3558
3453 -1605 3558
-687.33331 -1524.5 3558
-140.33333 -1505 3558
71.833336 -1520.5 3558
152.33333 -1522 3558
201 -1513 3558
465.90909 -1557.3636 3558
541.55554 -1566.2222 3558
602 -1513 3558
919 -1505 3558
1395 -1505 3558
1430.2222 -1512.4445 3558
1557.0834 -1534.9166 3558
1647.0454 -1539.5454 3558
2852.9092 -1550.6364 3558
2943 -1565.1333 3558
3048 -1553.8334 3558
3158.625 -1545.625 3558
3253.75 -1564.75 3558
